21.847042 -19.737450 57.405842 
22.051008 -18.959114 61.047421 
21.288446 -20.236481 59.377323 
20.335342 -20.209873 59.017994 
21.748276 -20.087463 53.211678 
22.018000 -14.477367 57.220253 
22.018000 -12.827129 59.220955 
21.231573 -20.184246 54.432640 
20.959875 -20.230371 56.388298 
20.511696 -20.226141 53.261547 
19.336346 -20.196001 53.181305 
18.386726 -20.196001 52.336716 
21.207396 -20.176842 48.016819 
21.838976 -19.926659 48.499081 
22.015934 -19.709850 49.633034 
22.018000 -17.422092 51.708649 
22.018000 -17.272493 50.498466 
22.034786 -18.268187 49.284866 
13.509874 -20.196001 59.719563 
11.564509 -20.196001 59.349159 
17.851538 -20.196001 61.052513 
19.279091 -20.196001 60.530098 
15.634544 -20.196001 60.335037 
15.596871 -20.196001 61.746819 
17.328091 -20.196001 57.595879 
18.180061 -20.196001 54.681797 
9.822081 -20.196001 57.993282 
14.284364 -20.196001 49.260662 
22.018000 -8.849050 33.537777 
22.018000 -8.134476 33.816299 
22.018000 -9.413929 36.297340 
22.018000 -9.173395 34.874722 
22.018000 -10.429009 38.635822 
22.018000 -11.037189 38.250172 
22.018000 -11.625311 37.739304 
22.018000 -8.728491 43.871429 
22.018000 -4.961083 36.814163 
22.018000 -4.377634 36.794479 
22.018000 -4.096064 36.187160 
22.018000 -3.472002 36.050480 
22.018000 -3.510669 41.408901 
22.018000 -2.703768 41.000931 
22.018000 -2.577420 40.086330 
22.018000 -3.675131 42.770668 
22.018000 -4.634138 39.641922 
22.018000 -3.990706 38.673717 
22.018000 -4.473063 44.501106 
22.018000 -6.454665 45.540531 
22.018000 -3.984765 38.033493 
22.018000 -3.391490 37.648659 
22.018000 -9.003318 41.754829 
22.018000 2.896273 36.556831 
22.018000 3.023403 38.269497 
22.018000 2.518676 35.234322 
22.018000 -1.247282 36.350079 
-18.600763 -20.196001 36.512245 
22.018000 -5.935539 111.999718 
22.018000 -4.783824 111.897102 
22.018000 0.063123 111.578987 
22.018000 -1.078919 111.915672 
19.077511 -20.196001 109.293152 
-21.582001 29.356268 97.584229 
-21.582001 20.844223 92.815567 
-21.582001 20.148010 93.119812 
-21.582001 20.946066 94.255867 
-21.582001 18.388210 94.535080 
-21.582001 23.022329 90.247742 
-21.582001 23.825365 90.169716 
-21.582001 14.452541 89.561768 
-21.582001 14.412503 92.082649 
-21.582001 27.738611 85.507469 
-21.582001 28.265558 84.963699 
-21.582001 16.860607 96.777061 
-21.582001 15.825475 95.994652 
-21.582001 15.092879 94.099686 
-21.582001 14.634650 94.461060 
-21.582001 13.508783 95.543335 
-21.582001 13.917245 94.113205 
-21.582001 17.340000 91.720619 
15.248242 43.603996 114.171051 
22.018000 30.973518 109.331871 
22.018000 31.619753 108.938240 
22.018000 28.793314 106.207512 
22.018000 27.254957 106.167244 
22.018000 28.555716 105.115211 
22.018000 29.799978 109.998238 
22.018000 31.142570 106.527489 
22.018000 25.013954 105.008202 
22.018000 26.776766 103.346909 
22.018000 26.482821 102.625816 
22.018000 27.458181 102.059898 
22.018000 24.841545 103.247444 
22.018000 30.298782 100.757896 
22.018000 28.333626 100.069168 
7.905253 43.603996 109.789505 
8.372646 43.603996 109.141533 
1.745947 43.603996 105.168236 
0.559413 43.603996 105.517075 
0.523288 43.603996 104.866096 
0.273451 43.603996 106.050331 
3.551340 43.603996 106.680321 
3.821507 43.603996 107.255081 
0.024315 43.603996 60.255928 
1.378984 43.603996 61.173603 
1.101116 43.603996 59.284653 
-3.721092 43.603996 69.634430 
2.080284 43.603996 63.232899 
1.622365 43.603996 61.840710 
0.763931 43.603996 63.437195 
2.264553 43.603996 63.913986 
1.172681 43.603996 62.360699 
-3.614867 43.603996 68.228134 
-2.501295 43.603996 66.711929 
-3.099118 43.603996 63.186363 
-2.560302 43.603996 64.111496 
-2.030024 43.603996 64.073921 
-6.320700 43.603996 60.641483 
-6.213776 43.603996 61.289398 
-5.314618 43.603996 59.467297 
-1.474655 43.603996 57.946186 
-0.956719 43.603996 57.887627 
-2.589829 43.603996 57.781925 
-0.485964 43.603996 55.416588 
-0.851550 43.603996 56.538364 
1.875115 43.603996 55.727879 
3.811172 43.603996 57.434711 
2.604604 43.603996 58.822948 
3.617983 43.603996 60.506741 
7.612565 43.603996 74.343468 
11.624650 43.603996 74.497368 
12.190514 43.603996 70.844810 
13.088026 43.603996 73.050034 
-6.223008 43.603996 91.015793 
-6.190978 43.603996 91.600754 
-4.605123 43.603996 90.409164 
-4.088484 43.603996 90.857491 
-5.047457 43.603996 91.542412 
-5.443816 43.603996 89.080933 
-5.730347 43.603996 98.802689 
-3.638876 43.603996 92.885857 
-5.396360 43.603996 92.761879 
-6.156056 43.603996 93.148064 
-1.754320 43.603996 100.417274 
-3.155121 43.603996 98.986244 
-3.123050 43.603996 96.430733 
-2.898147 43.603996 97.160042 
-2.875959 43.603996 94.547440 
1.033159 43.603996 100.933746 
-3.304038 -20.196001 110.417343 
-3.990175 -20.196001 110.214218 
-20.223486 1.084346 127.000008 
-17.579527 -0.584891 127.000008 
-17.661430 0.665186 127.000008 
-15.857915 0.444295 127.000008 
-14.764247 0.528697 127.000008 
-13.796242 -0.299984 127.000008 
-13.243673 0.324519 127.000008 
-8.667178 43.603996 52.372902 
-9.211514 43.603996 53.598808 
-3.618645 43.603996 52.486061 
-4.506274 43.603996 53.872967 
-2.429077 43.603996 51.715591 
-2.082653 43.603996 51.029106 
-1.884714 43.603996 50.380222 
-3.697742 43.603996 51.219662 
-4.187415 43.603996 48.026482 
-7.600437 43.603996 49.176926 
-3.344898 43.603996 49.409367 
-2.339139 43.603996 49.895271 
-3.336753 43.603996 46.726940 
-4.682548 43.603996 45.810528 
16.904966 43.603996 62.735634 
16.309063 43.603996 64.285072 
20.871721 43.603996 66.225853 
22.018000 42.809254 66.052727 
22.018000 42.019264 66.579575 
22.018000 41.505096 61.691669 
22.051727 42.158772 61.775799 
22.063192 42.629784 61.266121 
22.018000 39.336956 62.106926 
11.478354 -20.196001 54.183056 
10.042645 -20.196001 54.725433 
2.033902 -20.196001 39.898476 
0.725478 -20.196001 40.121635 
-0.000470 -20.196001 39.916660 
5.192363 -20.196001 42.294182 
5.058192 -20.196001 44.388645 
5.626104 -20.196001 46.034698 
3.246557 -20.196001 45.429474 
2.703080 -20.196001 45.654961 
-0.225827 -20.196001 41.210724 
-1.355743 -20.196001 41.679478 
-1.642264 -20.196001 42.188221 
-2.236230 -20.196001 42.457050 
-2.749946 -20.196001 43.107605 
15.425020 -20.196001 42.446247 
16.015207 -20.196001 42.801640 
14.821986 -20.196001 42.788708 
14.224594 -20.196001 42.435238 
14.263641 -20.196001 41.748508 
14.886855 -20.196001 41.486355 
20.316862 -20.196001 44.305431 
19.657558 -20.196001 46.139137 
19.326395 -20.196001 46.693687 
18.643072 -20.196001 45.853802 
19.417648 -20.196001 44.151531 
18.430620 -20.196001 44.030048 
13.655663 -20.196001 38.783718 
13.974456 -20.196001 38.181007 
11.252915 -20.196001 37.690960 
-21.582001 -11.348523 43.389370 
-21.582001 -11.355842 44.081730 
-21.582001 -11.248260 40.320774 
-21.582001 -11.937002 40.572586 
-21.582001 -10.603148 40.070713 
-21.582001 -8.939961 39.984879 
-21.582001 -5.991936 50.693222 
-21.582001 -7.392561 50.199661 
-21.582001 -12.549292 53.002213 
-21.582001 -10.347495 54.245686 
-20.669197 -20.193705 50.101349 
-21.582001 -17.640350 51.078075 
-21.582001 -16.804319 47.404190 
-21.582001 -15.247949 48.256252 
-21.582001 -15.331094 48.867687 
-21.582001 -13.865534 49.179577 
-21.582001 -14.716121 58.527103 
-21.582001 -13.716247 56.523716 
-21.582001 -14.118976 56.098804 
-21.582001 -14.256887 52.940636 
-21.582001 -15.152544 53.663094 
-21.582001 -13.683043 54.011276 
-21.582001 -16.460814 52.985134 
-21.582001 -17.050266 53.332619 
-21.582001 -17.048241 54.836796 
-21.582001 -9.543368 56.328392 
-21.582001 -8.874063 54.986240 
-21.582001 -8.023202 54.069118 
-21.582001 1.543983 66.063309 
-21.582001 3.376564 67.269730 
-21.582001 0.580264 72.003883 
-21.582001 -1.781233 70.437531 
-21.582001 -4.632875 64.350273 
-21.626375 -18.908524 70.141159 
-19.018223 -20.196001 72.799782 
-18.926060 -20.196001 75.075760 
-21.582001 -10.502295 76.249084 
-20.370117 -20.231955 43.166630 
-21.133200 -20.195686 42.439598 
-21.148600 -20.196001 46.739601 
19.903641 -20.196001 108.717949 
22.018000 -15.699688 105.459267 
22.018000 -15.401887 106.098808 
22.018000 -15.703194 106.766563 
22.018000 -15.963467 107.475327 
22.018000 -13.339418 107.022003 
22.018000 -12.129644 106.962563 
22.018000 -12.123219 107.581497 
22.021229 -19.783886 104.458481 
21.874937 -20.065962 104.050392 
21.539598 -20.143492 105.372086 
20.267244 -20.217323 104.811592 
21.701258 -20.050850 102.731827 
22.018000 -17.740505 103.940903 
22.018000 -17.575743 103.261169 
22.053959 -18.986410 103.610794 
22.038744 -19.658560 103.820023 
22.032156 -19.199116 102.478043 
18.355671 -20.196001 104.436821 
19.539873 -20.196001 103.063927 
16.796709 -20.196001 105.399330 
17.881191 -20.196001 103.854713 
18.950556 -20.196001 85.836594 
18.163414 -20.196001 84.975914 
17.431095 -20.196001 83.795731 
15.654497 -20.196001 83.969116 
22.056480 -18.788046 84.336319 
22.056395 -19.149035 83.200584 
22.018000 -17.714155 83.420563 
18.681105 -20.196001 79.908150 
16.527370 -20.196001 81.801407 
17.213360 -20.196001 79.422874 
21.678539 -20.139658 80.112488 
20.523502 -20.196001 73.214218 
22.018000 -19.203629 73.673721 
22.018000 -16.944660 75.720390 
22.018000 -16.030144 78.103668 
22.018000 -14.600161 78.968567 
22.018000 -17.355139 79.718941 
16.568022 -20.196001 74.820442 
18.311852 -20.196001 74.647606 
20.652344 -20.239321 76.833313 
19.573719 -20.196001 78.977852 
12.577647 -20.196001 78.500214 
14.366555 -20.196001 80.520103 
10.440325 -20.196001 75.372833 
8.063399 -20.196001 71.933876 
15.301869 -20.196001 78.499779 
16.160873 -20.196001 77.714455 
11.672009 -20.196001 75.782127 
10.395163 -20.196001 77.911240 
17.371841 -20.196001 70.092880 
15.517289 -20.196001 68.923279 
13.798779 -20.196001 70.462837 
5.935912 -20.196001 73.408707 
6.872883 -20.196001 69.303909 
5.723094 -20.196001 67.951370 
2.899807 -20.196001 66.451416 
3.780735 -20.196001 63.193462 
5.635027 -20.196001 62.764862 
4.636629 -20.196001 66.398987 
7.229296 -20.196001 66.904129 
10.838462 -20.196001 62.670246 
11.942415 -20.196001 61.819328 
8.247018 -20.196001 63.533096 
12.462877 -20.196001 65.436028 
12.149006 -20.196001 66.901543 
14.813926 -20.196001 62.953682 
22.018000 -14.162126 103.272278 
22.018000 -8.511057 108.876877 
22.018000 -9.477105 107.508690 
22.018000 -13.565373 111.016571 
17.666986 -20.196001 101.766678 
18.689453 -20.196001 99.699516 
19.804153 -20.196001 100.421890 
22.018000 -10.745435 100.505112 
22.018000 -15.410085 98.040367 
22.018000 -16.816069 97.543541 
22.018000 -15.554040 103.448853 
22.018000 -16.670797 103.895348 
22.018000 -18.830416 100.901688 
22.018000 -16.765701 99.678513 
-21.582001 22.231661 55.682056 
-21.582001 22.382290 56.784145 
-21.582001 19.548973 54.762543 
-21.582001 20.500551 55.785385 
-21.582001 19.896780 45.324326 
-21.582001 20.339907 45.623524 
-21.582001 21.210855 44.796886 
-21.582001 20.975834 45.451012 
-21.582001 16.477686 43.344894 
-21.582001 22.079233 48.889408 
-21.582001 21.673096 48.383427 
-21.582001 20.680212 49.229454 
-21.582001 13.938389 48.061836 
-21.582001 16.891741 46.524605 
-21.582001 19.893013 46.713028 
-21.582001 19.597193 47.429234 
-21.582001 17.376001 50.333126 
-21.582001 15.008397 49.162865 
-21.582001 19.375368 49.669495 
-21.582001 18.803101 49.736626 
-21.582001 20.040014 48.708996 
-21.582001 16.425995 54.936882 
-21.582001 17.268599 54.699936 
-21.582001 15.359435 53.961555 
-21.582001 17.106428 53.205868 
-21.582001 18.277285 53.152561 
-21.582001 18.924057 53.058262 
-21.582001 19.242693 52.369801 
-21.582001 18.575190 51.889652 
-21.582001 13.109354 52.805653 
-21.582001 14.079629 50.061157 
-21.582001 21.540762 52.488010 
-21.582001 22.920767 53.279388 
-21.582001 20.087444 52.656506 
-21.582001 19.331715 53.579716 
-21.582001 18.302849 40.255253 
-21.582001 18.888840 40.647652 
-21.582001 21.116007 41.025944 
-21.582001 19.111317 42.445885 
-21.582001 18.797804 41.337238 
-21.582001 18.568031 42.546558 
-21.582001 17.968782 42.300137 
-21.582001 14.466781 45.947994 
-3.234693 43.603996 109.474861 
2.839021 -20.196001 91.071701 
3.208061 -20.196001 89.770454 
0.866583 -20.196001 90.803307 
-17.689327 -20.196001 111.436890 
-17.689556 -20.196001 108.325050 
-20.711540 -20.196001 109.557350 
-20.452438 -20.196001 110.588211 
-20.711103 -20.241623 108.111671 
-20.008417 -20.232611 107.829010 
-15.099696 -20.196001 108.601234 
-14.460695 -20.196001 106.938560 
-15.231215 -20.196001 107.977921 
-18.849632 -20.196001 110.359230 
-18.269352 -7.332375 127.000008 
-4.870586 4.352457 127.000008 
-5.155457 4.958557 127.000008 
-2.896744 4.456298 127.000008 
-5.765422 3.652447 127.000008 
-6.237392 4.224961 127.000008 
-6.524809 2.589617 127.000008 
-0.355846 2.720673 127.000008 
2.866474 2.841778 127.000008 
-2.276912 1.540823 127.000008 
-2.938585 1.577706 127.000008 
-0.943108 2.602124 127.000008 
-9.581200 -0.968321 127.000008 
-9.137149 0.347934 127.000008 
-9.839477 0.139190 127.000008 
-8.416537 0.529409 127.000008 
-3.378958 5.653154 127.000008 
-6.100364 7.082202 127.000008 
-0.395844 -2.234610 127.000008 
-5.053139 -3.658837 127.000008 
-1.082317 -0.522130 127.000008 
-1.514865 0.209258 127.000008 
-4.078647 35.079388 33.561333 
-4.180796 39.631859 37.942276 
-5.175329 38.614315 36.963070 
-2.926623 39.435986 37.753784 
-1.933318 38.951595 37.287643 
-1.657156 38.603554 36.952721 
-1.628734 36.180588 34.621044 
-2.323693 36.102406 34.545811 
12.361305 43.603996 58.562214 
14.294740 43.603996 58.253529 
12.069931 43.603996 57.466423 
11.750029 43.603996 58.182240 
12.392514 43.603996 55.643833 
11.299635 43.603996 52.903336 
7.974339 43.603996 57.180981 
7.488938 43.603996 56.669369 
10.461523 43.603996 53.898106 
9.252373 43.603996 53.747379 
12.111487 43.603996 54.985748 
11.806727 43.603996 54.204926 
10.980951 43.603996 54.356705 
10.591496 43.603996 53.197643 
8.782140 43.603996 52.561367 
14.694536 43.603996 56.553402 
16.892820 43.603996 58.850536 
17.545256 43.603996 58.456223 
18.923649 43.603996 59.291187 
20.805971 43.638824 58.130474 
9.860713 -20.196001 47.027622 
9.862232 -20.196001 47.754585 
9.238843 -20.196001 46.171951 
10.126175 -20.196001 44.749889 
13.025634 -20.196001 48.394299 
11.076253 -20.196001 48.792027 
11.240374 -20.196001 49.592438 
8.476022 -20.196001 43.812199 
7.802520 -20.196001 44.221138 
7.108423 -20.196001 47.227978 
7.887492 -20.196001 42.521870 
7.281446 -20.196001 41.902779 
6.463661 -20.196001 42.875195 
7.703328 -20.196001 49.190319 
6.701922 -20.196001 49.720615 
6.078626 -20.196001 49.370575 
5.547532 -20.196001 49.769962 
6.659569 -20.196001 48.333202 
8.606321 -20.196001 47.681423 
9.151052 -20.196001 48.789654 
9.085111 -20.196001 49.455719 
8.432453 -20.196001 50.220161 
6.985775 -20.196001 41.107277 
6.254357 -20.196001 40.946346 
6.004903 -20.196001 42.287537 
5.545035 -20.196001 39.922749 
7.341733 -20.196001 38.541553 
6.013642 -20.196001 38.782383 
10.318220 -20.196001 41.003773 
13.757406 -20.196001 44.260651 
11.779333 -20.196001 45.506008 
3.429504 -20.196001 52.736248 
6.551833 -20.196001 54.648083 
5.238209 -20.196001 55.359165 
4.952862 -20.196001 56.370396 
8.009028 -20.196001 55.935081 
0.673964 -20.196001 49.362473 
-0.751169 -20.196001 48.685120 
-2.140243 -20.196001 48.852291 
-1.688643 -20.196001 49.888718 
-1.770845 -20.196001 46.862724 
-3.136640 -20.196001 46.709091 
-1.808434 -20.196001 45.255493 
-3.416365 -20.196001 44.876610 
1.085713 -20.196001 43.749706 
4.593432 -20.196001 50.800522 
4.237304 -20.196001 51.461136 
5.195652 -20.196001 52.159355 
3.604903 -20.196001 49.534462 
4.151637 -20.196001 48.642632 
5.034023 -20.196001 50.234432 
1.749194 -20.196001 48.619602 
1.569125 -20.196001 51.031776 
-0.010325 -20.196001 50.502518 
-0.572977 -20.196001 53.136280 
-4.477766 -20.196001 51.634384 
-3.869841 -20.196001 47.763317 
4.364379 -20.196001 40.607937 
4.751561 -20.196001 41.653698 
-8.174687 -20.196001 58.756268 
-7.385958 -20.196001 60.412571 
-6.076751 -20.196001 60.557529 
-5.301302 -20.196001 58.788479 
-10.129068 -20.196001 57.130646 
-1.005250 -20.196001 61.059914 
-0.151867 -20.196001 59.241154 
2.999549 -20.196001 70.620956 
1.744786 -20.196001 71.288826 
5.094546 -20.196001 69.046082 
-2.980267 -20.196001 67.339546 
-3.562255 -20.196001 69.956863 
0.842002 -20.196001 64.745155 
1.450136 -20.196001 66.539497 
15.102174 -20.196001 37.606117 
15.231572 -20.196001 34.544090 
22.018000 -16.612484 41.070118 
22.018000 -16.252445 42.958168 
22.018000 -15.393175 42.094795 
22.018000 -14.765735 42.597359 
-21.582001 26.636084 67.361473 
-21.582001 25.854427 67.506996 
-21.582001 24.754528 66.830566 
-21.582001 27.090677 68.039406 
-21.582001 24.141518 67.004639 
-21.582001 25.088787 64.637085 
-21.582001 15.754547 67.375511 
16.334385 43.603996 104.465187 
14.422010 43.603996 105.309975 
14.965467 43.603996 108.151344 
15.524587 43.603996 108.383926 
13.308637 43.603996 106.822823 
17.314566 43.603996 105.287445 
18.182163 43.603996 103.451202 
17.884953 43.603996 102.593292 
17.344862 43.603996 102.044739 
20.121445 43.603996 106.633141 
16.623892 43.603996 101.068489 
16.259827 43.603996 102.566353 
15.477085 43.603996 100.105835 
13.398011 43.603996 98.688103 
20.660378 43.619648 103.256607 
19.340242 43.603996 103.089584 
22.018000 43.206982 108.175323 
21.616188 43.603996 107.909653 
18.606365 43.603996 108.945717 
22.018000 40.819088 106.903107 
22.018000 40.395622 110.491058 
11.788218 43.603996 105.873932 
11.183560 43.603996 105.376640 
13.968388 43.603996 105.618126 
7.811049 43.603996 103.781525 
-0.424621 43.603996 72.233711 
0.665270 43.603996 74.712730 
1.907077 43.603996 74.649506 
1.965852 43.603996 73.859192 
2.606198 43.603996 72.418007 
-3.103028 43.603996 72.928703 
-1.614728 43.603996 72.206650 
-2.597225 43.603996 74.760849 
-0.000255 43.603996 74.424271 
0.540882 43.603996 75.904778 
3.952638 43.603996 76.928505 
1.537561 43.603996 69.828773 
1.224971 43.603996 81.321075 
2.361991 43.603996 79.714256 
-1.816737 43.603996 76.089401 
-4.616216 43.603996 75.760124 
-4.614991 43.603996 77.949600 
-5.227711 43.603996 76.097343 
-2.984139 43.603996 78.490234 
0.712199 43.603996 78.546143 
0.393086 43.603996 79.220001 
2.170638 43.603996 78.200371 
1.920350 43.603996 75.393204 
-5.921318 43.603996 77.095795 
-6.015021 43.603996 79.843849 
-4.537119 43.603996 109.903336 
-3.977517 43.603996 111.055542 
-3.514363 43.603996 114.202782 
6.109582 -20.196001 102.021461 
3.219953 -20.196001 102.068382 
2.145246 -20.196001 102.134811 
0.926074 -20.196001 101.793442 
-1.744298 -20.196001 97.786377 
-0.556003 -20.196001 97.110985 
-0.223281 -20.196001 96.413193 
-4.375151 -20.196001 99.233200 
-3.867225 -20.196001 96.433304 
-3.539258 -20.196001 98.358398 
-5.219007 -20.196001 100.694550 
1.137015 -20.196001 100.591576 
1.802471 -20.196001 99.646111 
-8.856401 -20.196001 110.889465 
-9.120992 -20.196001 110.239441 
-7.838599 -20.196001 110.529892 
-8.636217 -20.196001 109.619270 
-5.015729 -20.196001 106.750366 
-3.318044 -20.196001 108.359970 
-9.978234 -20.196001 108.719986 
-8.986610 -20.196001 108.827187 
-8.831294 -20.196001 107.455116 
-12.407613 25.702595 127.000008 
-6.100713 23.840729 127.000008 
-5.929942 23.115591 127.000008 
0.312538 25.281506 127.000008 
-4.517408 20.049906 127.000008 
-3.238176 22.891726 127.000008 
-19.412714 22.611582 127.006317 
-21.582001 20.207277 123.328033 
-21.582001 20.918726 121.765343 
-21.455011 20.034824 126.572289 
-21.151373 19.829565 126.953461 
-21.582001 19.062384 124.799805 
-21.572266 17.881910 126.351776 
-19.153452 19.107489 127.000008 
-18.641308 18.505816 127.000008 
-17.919884 19.772291 127.000008 
-19.380941 15.636497 127.009804 
-21.623240 18.078398 125.641518 
-21.582001 17.788937 124.369705 
-21.582001 16.624559 124.377747 
-21.486765 14.997808 126.362465 
-21.316755 14.200899 126.506203 
-19.773451 13.072306 127.000008 
-18.722624 12.406230 127.000008 
-20.748241 13.386417 126.858162 
-18.491158 14.433659 127.000008 
-17.413399 16.818279 127.000008 
-17.898006 16.530258 127.000008 
-15.829055 16.071815 127.000008 
-15.104497 17.202415 127.000008 
-13.886979 20.871740 127.000008 
-14.734734 21.803701 127.000008 
-14.485359 19.519604 127.000008 
-15.236038 19.354118 127.000008 
-15.490870 18.539558 127.000008 
-14.122970 18.267452 127.000008 
-16.219831 20.701384 127.000008 
-17.126762 12.580736 127.000008 
-17.050154 11.927881 127.000008 
-21.103729 22.936285 126.973061 
-21.442007 22.499134 126.759819 
-15.481740 21.711029 127.000008 
-15.083320 23.015085 127.000008 
-17.787203 24.372040 127.000008 
-6.940505 24.715031 127.000008 
-6.475547 22.660656 127.000008 
-7.096131 20.291037 127.000008 
-11.776049 23.609682 127.000008 
-12.564281 23.766485 127.000008 
-7.101268 15.518446 127.000008 
-8.276047 16.957001 127.000008 
-11.641143 17.736837 127.000008 
-12.211657 17.302450 127.000008 
-12.834623 16.956926 127.000008 
-12.552868 15.826714 127.000008 
-11.698714 19.853472 127.000008 
-12.748363 18.388321 127.000008 
-14.643438 16.201550 127.000008 
-8.929924 18.736429 127.000008 
-8.232120 18.773546 127.000008 
-8.879520 19.814707 127.000008 
-5.720704 19.832220 127.000008 
-14.442782 11.504074 127.000008 
-13.799846 11.828547 127.000008 
-13.050806 11.426064 127.000008 
-12.431914 10.803472 127.000008 
-10.653642 10.374975 127.000008 
-11.067769 9.836938 127.000008 
-10.589344 8.484571 127.000008 
-10.092505 11.220356 127.000008 
-10.967472 12.773172 127.000008 
-11.463210 13.133670 127.000008 
-14.821486 9.505523 127.000008 
-14.414868 8.943974 127.000008 
-16.419981 10.385747 127.000008 
-16.282173 9.110128 127.000008 
-12.000874 8.655319 127.000008 
-16.872431 5.820257 127.000008 
-14.973469 6.023696 127.000008 
-14.890941 7.663487 127.000008 
-17.613363 10.539393 127.000008 
-18.023930 8.385980 127.000008 
-18.983761 8.987750 127.000008 
-4.760278 14.378024 127.000008 
-5.690470 12.828155 127.000008 
-9.670961 9.318756 127.000008 
-9.476224 8.541698 127.000008 
-10.000126 8.165489 127.000008 
-8.341888 12.008665 127.000008 
-6.560640 11.938825 127.000008 
-4.103364 10.105865 127.000008 
-1.844639 -20.196001 86.482552 
-7.532483 -20.196001 84.597229 
-5.898910 -20.196001 81.946510 
-21.582001 1.360975 98.819847 
-21.582001 -0.004651 100.087410 
-21.582001 -0.492453 101.219818 
-21.582001 -1.149264 102.377151 
-21.582001 -2.617205 101.011902 
-15.644526 -20.196001 85.301430 
-12.677709 -20.196001 85.999908 
-11.027718 -20.196001 86.839760 
-12.500051 -20.196001 89.106789 
-15.030462 -20.196001 89.332870 
-21.582001 -17.759188 95.256691 
-18.436975 -20.196001 96.785774 
-18.939831 -20.196001 95.569847 
-19.090681 -20.196001 94.506584 
-17.205254 -20.196001 89.608368 
-18.495726 -20.196001 87.474350 
-21.259365 -20.070332 87.445610 
-21.418585 -20.196001 88.728989 
-20.313263 -20.226665 85.259491 
-17.868235 -20.196001 85.307785 
-21.582001 -19.015306 88.670898 
-21.582001 -18.830603 93.273689 
-21.622072 -19.309458 92.492935 
-21.583441 -19.558952 90.945084 
-21.582001 -17.246162 91.358505 
-21.582001 -16.237379 91.545448 
-21.582001 -14.174188 96.943245 
-21.582001 -12.277935 95.257202 
-21.582001 -9.978673 96.112000 
-21.582001 -8.783229 97.149063 
-21.582001 -8.367102 94.223160 
-21.582001 -9.480259 93.577263 
3.165123 1.021982 127.000008 
3.698184 0.665528 127.000008 
2.477575 4.647579 127.000008 
-3.840804 43.603996 58.407665 
-3.175605 43.603996 58.787403 
-1.324368 43.603996 52.825397 
-1.125867 43.603996 52.129063 
-2.027817 43.603996 52.967522 
-2.695817 43.603996 53.089947 
-2.948611 43.603996 53.709591 
-2.853959 43.603996 54.909061 
-2.525081 43.603996 55.467445 
0.556557 43.603996 54.075077 
-0.019223 43.603996 52.540085 
18.417141 43.603996 60.459854 
13.599978 43.603996 59.988976 
12.119152 43.603996 59.650345 
4.135486 10.471094 127.000008 
3.627066 10.902616 127.000008 
4.681884 10.053982 127.000008 
6.511773 10.928293 127.000008 
5.600689 14.531354 127.000008 
4.356537 14.576140 127.000008 
5.872249 9.201156 127.000008 
6.592002 8.740914 127.000008 
6.500697 10.262933 127.000008 
1.384212 8.757770 127.000008 
2.049799 9.707433 127.000008 
0.878169 7.067990 127.000008 
1.133908 6.436589 127.000008 
0.453208 6.523911 127.000008 
2.946553 10.725363 127.000008 
-0.593763 7.297066 127.000008 
-1.626040 7.567141 127.000008 
7.917135 7.400473 127.000008 
2.751731 14.422565 127.000008 
-2.177296 9.880920 127.000008 
-5.142016 9.776564 127.000008 
1.187351 12.796005 127.000008 
-2.679605 17.568718 127.000008 
-0.955394 14.177584 127.000008 
-3.809278 13.958258 127.000008 
22.018000 -5.840096 33.511349 
22.018000 -5.388875 33.010868 
22.018000 -4.520429 33.796093 
22.018000 21.606693 108.821655 
22.018000 19.970348 109.990623 
22.018000 9.195088 112.187286 
22.018000 4.991839 109.641678 
22.018000 4.494083 108.915924 
22.018000 3.079756 106.783051 
-21.582001 27.825832 71.760017 
-21.582001 27.109673 71.518959 
-21.582001 26.455492 71.314285 
-21.582001 25.263973 71.455750 
-21.582001 15.212164 74.439980 
-21.582001 14.321840 75.324066 
-21.582001 13.339285 75.770973 
-21.582001 14.251230 76.569626 
-21.582001 15.755322 76.385071 
-21.582001 16.940958 75.832253 
-21.582001 17.262032 76.518822 
-21.582001 17.784182 73.297989 
-21.582001 12.694393 73.759033 
-21.582001 12.571048 74.817314 
-21.582001 11.363563 73.062569 
-21.582001 15.383148 79.410011 
-21.582001 14.938862 79.810791 
-21.582001 9.741835 78.346550 
-21.582001 10.166302 83.470718 
-21.582001 13.692652 81.286674 
-21.582001 13.604182 86.012955 
-21.582001 15.376430 81.997124 
-21.582001 15.032580 81.388359 
-21.582001 14.625209 82.953133 
-21.582001 17.307447 84.550545 
-21.582001 18.781239 82.602165 
22.018000 42.978344 88.611748 
20.096668 43.603996 86.251755 
20.718082 43.638069 85.316849 
18.555449 43.603996 87.861969 
15.442868 43.603996 88.310730 
16.244617 43.603996 92.777916 
13.805471 43.603996 92.210983 
12.546558 43.603996 91.741638 
13.852881 43.603996 96.165443 
16.199055 43.603996 98.218185 
17.614527 43.603996 99.531181 
18.210344 43.603996 99.047180 
7.442574 43.603996 98.296898 
7.368054 43.603996 97.086784 
9.709042 43.603996 101.370461 
12.103019 43.603996 98.432617 
11.570353 43.603996 97.168098 
9.523007 43.603996 94.162781 
10.474557 43.603996 95.484543 
20.803612 43.603996 102.621567 
19.359619 43.603996 102.445747 
18.459980 43.603996 100.577652 
22.038906 41.629856 104.109138 
22.029264 42.543354 103.104706 
22.018000 38.977924 103.657639 
22.018000 40.241295 100.612389 
22.018000 41.459808 100.444641 
22.018000 42.086735 97.910965 
18.989119 43.603996 97.683960 
19.481400 43.603996 96.770981 
19.315775 43.603996 96.130020 
18.643490 43.603996 95.990173 
-1.447986 43.603996 70.768646 
-0.920963 43.603996 71.245857 
-5.562961 43.603996 71.610405 
-5.674746 43.603996 74.341995 
-7.771501 -9.423425 127.000008 
-11.493323 -8.472148 127.000008 
-0.008228 43.573109 41.735027 
8.290652 -20.196001 39.349354 
5.808386 -20.196001 37.146988 
4.479019 -20.196001 37.795307 
-21.582001 -13.912078 42.427029 
-21.582001 -12.526332 44.003296 
-21.582001 -17.554714 43.537193 
-21.626461 -18.965746 43.766762 
-21.613319 -19.404415 43.266270 
-21.626083 -19.310675 44.312576 
-21.582001 -18.223499 44.974255 
-21.582001 -15.212457 46.070755 
-21.582001 -13.198090 44.209583 
-21.582001 -12.165009 51.163704 
-21.582001 -11.464877 51.402786 
-21.582001 -11.517362 45.675770 
-21.582001 -10.826448 44.331944 
-21.582001 -7.924050 46.446255 
-21.582001 -8.868613 47.465477 
-21.582001 -6.505265 48.026272 
-21.582001 -8.198487 48.637222 
-21.582001 -6.042891 47.467834 
-21.582001 -4.624476 46.153053 
-21.582001 -8.534145 40.432648 
-21.582001 -6.464070 41.150150 
-21.582001 -10.709568 42.262791 
-21.582001 -11.476482 41.864166 
-21.582001 -12.036357 41.304134 
22.018000 -2.778514 64.798080 
22.018000 -3.527945 66.585320 
22.018000 -11.019268 73.027458 
22.018000 -12.916062 72.327576 
22.018000 -11.315667 74.485291 
22.018000 -8.315454 76.420105 
22.018000 -7.113046 75.621719 
22.018000 -11.891210 76.202408 
22.018000 -13.452424 75.198082 
22.018000 22.742653 47.544491 
22.018000 27.108501 53.053410 
22.018000 24.103359 51.088711 
22.018000 15.571464 76.580681 
22.018000 17.507212 77.824730 
22.018000 18.905159 79.653954 
22.018000 8.132383 108.491295 
22.018000 7.426149 108.614319 
22.018000 8.382762 106.369804 
22.018000 10.433474 104.767273 
22.018000 10.458902 107.602943 
22.018000 11.635323 107.142792 
22.018000 12.934845 109.775620 
22.018000 12.198745 107.968437 
22.018000 8.010269 104.411385 
22.018000 7.756195 103.906776 
22.018000 9.191962 106.234711 
22.018000 8.594172 103.343018 
22.018000 14.510601 104.344368 
22.018000 4.528701 104.042328 
22.018000 4.916049 103.367493 
22.018000 1.210652 102.299576 
22.018000 2.531644 100.570801 
22.018000 3.807065 100.904640 
22.018000 8.351880 101.267654 
22.018000 8.708247 102.015099 
22.018000 9.114965 101.532715 
22.018000 6.779661 101.596909 
-21.582001 29.620237 87.443192 
-21.582001 29.068670 87.261856 
-21.582001 24.962292 93.901001 
-21.582001 24.276741 87.162300 
-21.582001 24.094181 88.955185 
-21.582001 24.468592 89.602310 
-21.582001 8.128304 65.961655 
-21.582001 10.473470 67.636536 
-21.582001 5.419468 69.344574 
-21.582001 7.798162 70.728477 
-21.582001 6.246043 71.599716 
-21.582001 4.372141 74.745514 
-21.582001 4.421497 85.457451 
-21.582001 8.852257 82.395058 
-21.582001 8.101532 81.485336 
-21.582001 11.579368 89.487320 
-21.582001 13.016681 89.597389 
-21.582001 9.754983 85.687859 
-21.582001 8.907623 86.749580 
-21.582001 7.378962 86.710617 
-21.582001 9.257556 84.254631 
-21.582001 9.764966 92.954460 
-21.582001 7.387719 95.672470 
-21.582001 9.872812 96.467003 
-21.582001 11.063212 95.150940 
-21.582001 6.261774 91.074135 
-21.582001 7.362008 92.571884 
-21.582001 5.609670 92.914337 
-21.582001 12.135358 91.575378 
-21.582001 13.013920 90.819489 
-21.582001 11.198848 68.616676 
-21.582001 11.675941 78.575470 
-21.582001 12.515879 79.410637 
-21.582001 12.118862 79.818367 
-21.582001 13.441188 80.105034 
-21.582001 8.647791 76.296623 
-21.582001 11.252207 76.954468 
-21.582001 11.960028 76.879448 
-21.582001 10.108883 73.360619 
-21.582001 9.869711 72.614037 
-21.582001 9.617630 69.719688 
-21.582001 9.335732 69.027580 
12.898345 43.603996 92.903816 
11.543162 43.603996 93.826920 
12.279963 43.603996 94.922409 
11.065543 43.603996 88.707199 
14.559746 43.603996 86.088860 
22.018000 39.329258 84.551109 
22.018000 40.418400 85.200867 
16.074736 43.603996 84.706635 
17.147041 43.603996 85.429626 
16.013844 43.603996 82.952309 
15.798226 43.603996 81.716675 
14.972961 43.603996 81.317108 
17.638346 43.603996 80.571754 
17.877337 43.603996 77.862106 
15.793804 43.603996 78.802040 
20.636616 43.603996 82.886627 
13.738672 43.603996 81.427780 
13.486671 43.603996 80.814262 
12.447069 43.603996 83.197845 
12.722968 43.603996 84.409668 
6.993788 43.603996 88.903984 
6.653063 43.603996 90.112961 
3.830771 43.603996 84.799065 
4.019988 43.603996 85.998665 
3.287644 43.603996 86.007660 
13.021339 43.603996 75.186485 
11.389813 43.603996 77.992744 
10.618943 43.603996 79.062248 
11.437825 43.603996 84.007828 
11.956469 43.603996 83.543785 
11.530005 43.603996 85.828056 
12.726906 43.603996 85.736320 
5.763143 43.603996 79.351906 
5.395435 43.603996 77.550514 
4.756819 43.603996 77.062683 
4.143456 43.603996 77.603546 
8.439293 43.603996 79.692360 
9.236468 43.603996 79.522537 
9.775461 43.603996 80.044350 
11.717465 43.603996 81.640152 
4.693916 -20.196001 107.250359 
0.835702 -20.196001 110.150444 
1.801091 -20.196001 109.426407 
7.399751 -20.196001 111.649628 
5.541855 -20.196001 106.407860 
6.901137 -20.196001 106.470375 
7.304120 -20.196001 105.953796 
-3.528630 -20.196001 106.933395 
-6.876684 -20.196001 104.759552 
-7.447488 -20.196001 104.580849 
-7.593108 -20.196001 103.771019 
-5.408656 -20.196001 101.805000 
-4.205546 -20.196001 101.651421 
-4.860030 -20.196001 101.266174 
-3.701548 -20.196001 101.375648 
-7.146745 -20.196001 102.226799 
-2.785250 -20.196001 105.725372 
-0.794290 -20.196001 101.283730 
-0.690993 -20.196001 102.553757 
-0.259277 -20.196001 103.051865 
-12.547205 -20.196001 101.899483 
-11.851845 -20.196001 101.742744 
-11.478379 -20.196001 100.488358 
-11.076947 -20.196001 101.907936 
-5.468284 -20.196001 94.436531 
-3.390218 -20.196001 94.056763 
-2.166704 -20.196001 94.794189 
-2.669704 -20.196001 92.039665 
3.731845 -20.196001 97.403046 
4.877365 -20.196001 98.888222 
1.548178 -20.196001 97.036346 
1.265726 -20.196001 95.586349 
6.117885 -20.196001 94.829979 
4.007147 -20.196001 94.738815 
3.489993 -20.196001 92.801155 
4.115738 -20.196001 91.631432 
-0.835173 -20.196001 107.100357 
0.398733 -20.196001 107.639275 
-1.236414 -20.196001 108.516220 
0.957820 -20.196001 104.543625 
2.143867 -20.196001 104.970917 
2.113868 -20.196001 104.280235 
1.409895 -20.196001 108.849541 
4.478343 -20.196001 104.001053 
5.304520 -20.196001 103.793312 
3.219026 -20.196001 104.244705 
2.751929 -20.196001 103.943840 
3.267085 -20.196001 105.952255 
6.952614 -20.196001 103.078529 
7.689895 -20.196001 102.872833 
8.421016 -20.196001 102.632011 
8.171314 -20.196001 104.846497 
7.888826 -20.196001 104.189133 
9.603806 -20.196001 105.974976 
10.339836 -20.196001 106.122551 
8.869939 -20.196001 104.948448 
7.229199 -20.196001 100.293228 
7.667530 -20.196001 101.399857 
11.682769 -20.196001 96.372261 
8.461864 -20.196001 97.312531 
9.493078 -20.196001 97.946907 
9.824269 -20.196001 98.549698 
8.213500 -20.196001 97.915466 
8.679402 -20.196001 100.941574 
-20.554722 -20.196001 97.596764 
-18.273588 -20.196001 99.294098 
-19.710939 -20.196001 98.449165 
-17.091000 -20.196001 95.520813 
-14.893906 -20.196001 99.205299 
-14.946345 -20.196001 92.749306 
-13.136624 -20.196001 96.021729 
-17.165113 -20.196001 92.867722 
-8.932778 -20.196001 103.874115 
-9.834180 -20.196001 102.748444 
-9.413627 -20.196001 103.317429 
-10.766309 -20.196001 100.645744 
-9.488428 -20.196001 98.359566 
-6.678537 -20.196001 99.394119 
-5.841992 -20.196001 99.593246 
-5.778140 -20.196001 100.427429 
-7.067901 -20.196001 100.667717 
-8.524954 -20.196001 96.829597 
-7.342886 -20.196001 95.810730 
-12.411342 -20.196001 99.628944 
-10.702114 -20.196001 89.336678 
-11.241743 -20.196001 91.277214 
-9.583838 -20.196001 93.587463 
-12.412018 -20.196001 95.096138 
-8.001649 -20.196001 92.253120 
-7.744142 -20.196001 93.758011 
-4.557752 -20.196001 90.599838 
-20.456680 -20.228577 105.889458 
-21.126863 -20.113245 105.774330 
-20.735086 -20.206636 105.216400 
-19.663700 -20.211763 105.969643 
-21.582001 12.203565 114.730286 
-21.582001 13.358142 113.608818 
-21.582001 14.011453 116.591064 
-21.582001 13.602077 117.109573 
-21.582001 14.492703 115.929291 
-21.582001 7.537198 114.099327 
-21.582001 7.289527 110.779320 
-21.582001 8.049776 109.077812 
-21.582001 1.574797 108.361801 
-21.582001 0.862927 104.063110 
-21.582001 1.347086 102.841660 
-21.582001 6.109311 106.864929 
-21.582001 -2.483418 104.679985 
-21.582001 -2.115832 117.477631 
-21.582001 -5.013730 115.034500 
-21.582001 4.039768 116.796364 
-21.582001 3.877557 116.109764 
-21.582001 2.619363 115.347321 
-21.582001 6.046119 117.212624 
-21.582001 8.040645 115.821320 
-21.582001 7.429930 112.020630 
-21.582001 3.080760 111.159500 
-21.582001 2.298318 112.070526 
-21.582001 6.244397 111.191795 
-21.582001 5.791797 109.799156 
-21.582001 4.788519 110.209923 
-21.582001 -0.320356 111.588348 
-21.582001 1.511652 112.178062 
-21.582001 0.272508 113.480721 
-21.582001 3.426645 109.772926 
-21.582001 2.258163 109.541519 
-21.582001 1.422215 110.307770 
-21.582001 1.491109 109.620544 
-21.582001 -2.474799 112.807518 
-21.582001 -2.963708 112.276535 
-21.582001 -2.860158 111.635452 
-21.582001 -3.409270 111.889542 
-21.582001 -3.972938 112.942482 
-21.582001 -2.043841 115.675278 
-21.582001 -2.291304 116.183640 
-21.582001 -3.991510 106.296516 
-21.582001 0.356742 108.477425 
-21.582001 0.765887 109.365532 
-21.582001 -3.422502 99.006958 
-21.582001 -5.462885 97.735909 
-21.582001 4.539110 101.048996 
-21.582001 4.669353 99.970970 
-21.582001 2.831503 101.484619 
-21.582001 10.165454 101.044846 
-21.582001 8.379797 104.091972 
-21.582001 6.542839 104.773125 
-21.582001 11.308192 98.799789 
-21.582001 10.780733 97.527229 
-21.582001 -11.157988 81.857574 
-21.582001 -11.246152 93.529472 
-21.582001 -6.966178 92.822021 
-21.582001 -1.729904 91.154366 
-21.582001 0.602213 87.949364 
-21.582001 0.809129 88.504562 
-21.582001 0.156658 86.540009 
-21.582001 -0.638795 85.626015 
-21.582001 -1.861212 85.758331 
-21.582001 -2.958096 87.385597 
-21.582001 -3.463443 94.199692 
-21.582001 -2.560770 94.903145 
-21.582001 -4.403592 90.117538 
-21.582001 -6.657067 91.039154 
-21.582001 1.550598 94.020699 
-21.582001 2.840027 92.487671 
-21.582001 1.532500 90.780975 
-21.582001 -8.587936 87.489212 
-21.582001 -0.869658 82.228630 
-21.582001 -5.232298 82.229462 
-21.582001 -4.595524 83.524979 
-21.582001 -3.815256 84.199577 
-21.582001 -6.838463 86.637939 
-21.582001 -10.763268 84.886589 
-21.582001 -11.327882 85.928581 
-21.582001 -11.448578 87.164719 
-21.582001 -9.729758 81.696739 
-21.582001 7.617311 89.491821 
-21.582001 -0.335358 83.195541 
22.018000 38.760338 81.296410 
22.018000 39.409264 77.730583 
22.018000 41.036148 79.514648 
22.018000 39.053600 78.363571 
22.018000 35.654289 89.048409 
22.018000 41.790905 88.874657 
22.018000 41.656162 91.130333 
22.018000 39.966702 56.588524 
22.018000 39.681957 51.948303 
22.018000 40.823837 52.303562 
22.018000 38.204899 60.327152 
22.018000 37.553501 60.331532 
22.018000 36.374134 60.466408 
22.018000 37.058933 60.705757 
22.018000 35.498596 57.883530 
22.018000 41.970238 60.312668 
22.052275 42.690598 60.123158 
22.018000 41.288872 60.529060 
21.877977 43.343079 58.106178 
21.430119 43.606377 59.779167 
21.555286 43.548698 60.473133 
21.670218 43.513420 61.187908 
22.018000 39.596481 59.742527 
22.018000 36.321556 62.390488 
22.018000 35.474117 62.390858 
22.018000 38.497971 64.500328 
22.018000 37.401089 64.291351 
22.018000 37.181808 64.813110 
22.018000 38.607849 63.795238 
22.018000 36.168137 65.527016 
22.018000 35.767643 66.283478 
22.018000 33.847633 67.443611 
22.018000 40.657207 66.528984 
22.018000 36.411579 66.918694 
22.018000 36.759312 71.624725 
22.018000 35.682812 69.540199 
22.018000 39.850750 73.842079 
22.018000 38.932926 72.218460 
22.018000 38.395443 75.654533 
22.018000 37.802418 76.110153 
22.018000 37.494011 77.136246 
22.018000 35.675217 76.317093 
22.018000 38.835728 74.903061 
22.018000 39.571274 74.978455 
22.018000 34.990528 74.738525 
22.018000 41.381332 76.056732 
22.046055 41.988892 77.130005 
22.018000 26.693325 69.870087 
22.018000 30.157520 73.579468 
22.018000 30.766926 75.101936 
22.018000 30.067236 76.383484 
22.018000 27.864748 75.403954 
22.018000 30.334993 71.362869 
22.018000 31.134556 70.223640 
22.018000 31.827278 69.916969 
22.018000 35.186508 73.505814 
22.018000 34.628838 74.147896 
22.018000 35.742809 70.817810 
22.018000 26.971308 73.509628 
22.018000 24.599119 65.068085 
22.018000 22.413960 64.993904 
22.018000 23.459585 72.646698 
22.018000 28.093962 72.218803 
22.018000 25.754599 74.893784 
22.018000 24.390045 73.349548 
22.018000 40.422359 71.731567 
22.018000 40.566051 72.965202 
22.018000 40.521118 73.660561 
22.032047 41.586079 74.626015 
22.054224 42.159760 71.039261 
20.916573 43.603996 73.250061 
20.998808 43.641392 76.518494 
21.852627 43.425426 70.900345 
17.743174 43.603996 71.787552 
17.892607 43.603996 70.498909 
17.688379 43.603996 74.619003 
16.710180 43.603996 74.520630 
18.652695 43.603996 75.915871 
22.018000 41.610329 69.352409 
22.018000 40.906570 68.570465 
21.893690 43.259388 67.014473 
22.023855 42.748875 66.532104 
21.294624 43.582520 69.672600 
19.486166 43.603996 70.057220 
20.892550 43.645576 67.492111 
19.629570 43.603996 66.350037 
20.248949 43.603996 59.938652 
19.185005 43.603996 63.008682 
18.528875 43.603996 63.197731 
20.693108 43.646935 62.826572 
15.043917 43.603996 63.455814 
15.821871 43.603996 61.729908 
11.266901 43.603996 65.859497 
10.684983 43.603996 66.426323 
12.462930 43.603996 63.680069 
12.020395 43.603996 61.597607 
11.091096 43.603996 60.669933 
9.956666 43.603996 61.420212 
18.414845 43.603996 66.528725 
15.585231 43.603996 65.293800 
14.485135 43.603996 64.953171 
14.133925 43.603996 65.725685 
15.457357 43.603996 68.013618 
15.751839 43.603996 71.231056 
16.283197 43.603996 71.751503 
14.976124 43.603996 70.559853 
18.665297 43.603996 67.913879 
19.153545 43.603996 67.433907 
18.134056 43.603996 68.620323 
17.569019 43.603996 69.271332 
22.018000 17.917784 85.249184 
22.018000 22.055668 82.406837 
22.018000 34.439228 90.846260 
22.018000 32.629658 87.962082 
22.018000 30.734598 85.730560 
22.018000 32.728592 85.471603 
22.018000 33.001907 84.713432 
22.018000 33.964527 84.274864 
22.018000 14.974320 80.280891 
22.018000 14.934902 83.422073 
22.018000 17.814722 81.244476 
22.018000 12.082057 80.243469 
22.018000 11.142889 79.513725 
22.018000 13.055504 79.274773 
-21.582001 22.712683 69.263382 
-21.582001 24.412376 69.215218 
-21.582001 21.644178 69.667641 
-21.582001 21.759323 70.247864 
-21.582001 18.554182 72.020638 
22.018000 30.113211 104.346291 
22.018000 30.376408 102.407028 
22.018000 29.678345 102.043091 
22.018000 30.616755 101.359734 
22.018000 36.008560 98.436356 
22.018000 37.005562 96.860672 
22.018000 37.446568 96.307671 
22.018000 38.953487 96.499817 
22.018000 38.616001 95.830124 
22.018000 39.771458 97.749413 
22.018000 34.281494 96.229805 
22.018000 32.640690 96.802040 
22.018000 34.345493 92.708374 
22.018000 34.379463 92.029343 
22.018000 32.421219 94.408333 
22.018000 40.744469 92.414795 
22.018000 40.599007 93.267059 
22.018000 39.770634 92.817734 
22.018000 42.970745 91.609825 
21.254501 43.603996 90.940048 
22.018000 35.542027 94.704468 
22.018000 36.677128 94.319870 
22.018000 37.619320 95.095078 
22.018000 36.154701 92.440147 
22.018000 38.156487 89.845711 
22.018000 40.774731 94.550766 
22.018000 41.374783 94.161415 
22.018000 40.087780 97.120178 
22.018000 39.615559 104.120026 
22.018000 35.201408 109.429459 
22.018000 31.800531 107.471642 
22.018000 33.395725 108.590317 
22.018000 34.851139 108.919426 
22.018000 36.276546 105.165207 
22.018000 36.969440 105.438728 
22.018000 37.091042 107.696686 
-8.250367 -20.196001 82.516731 
-6.782724 -20.196001 77.732430 
-5.674425 -20.196001 80.280144 
-4.362591 -20.196001 80.388618 
-11.936302 -20.196001 74.691124 
-7.868641 -20.196001 74.610992 
-11.500259 -20.196001 72.731728 
-8.731153 -20.196001 72.289108 
-1.887076 -20.196001 79.436623 
-0.330318 -20.196001 79.608376 
0.550632 -20.196001 83.187775 
1.249252 -20.196001 86.021362 
-0.522941 -20.196001 85.884499 
-3.906100 -20.196001 76.968552 
-20.771246 -20.134125 59.666721 
-20.843571 -20.227190 58.969711 
-20.376644 -20.221416 60.558628 
-20.861401 -20.179808 61.868874 
-20.734459 -20.178158 62.568813 
-20.513235 -20.241653 63.226746 
-21.472599 -19.804203 63.031528 
-21.582294 -19.384325 62.746632 
-21.592163 -18.337250 62.985077 
-21.608265 -18.557810 60.968475 
-21.582001 -17.584564 60.218765 
-21.628428 -19.085913 57.576191 
-21.571684 -19.712965 57.518795 
-21.433830 -20.005442 58.029224 
-15.546262 -20.196001 59.436581 
-14.897463 -20.196001 59.555649 
-15.367212 -20.196001 60.927296 
-14.013326 -20.196001 61.160099 
-14.639486 -20.196001 60.060154 
-17.159916 -20.196001 62.002426 
-17.147873 -20.196001 62.727684 
-18.936337 -20.196001 62.162331 
-18.982855 -20.196001 62.913513 
-15.286562 -20.196001 63.644646 
-13.799308 -20.196001 62.547512 
-14.245384 -20.196001 56.504036 
-21.582001 -12.248296 58.587650 
-21.582001 -12.277716 56.320625 
-21.582001 -11.870355 61.017818 
-21.582001 -11.801275 62.694149 
-21.582001 -16.979218 65.647102 
-21.582001 -17.718740 68.325195 
-21.582001 -19.160912 68.695732 
-21.582001 -15.158987 68.924515 
-21.582001 -15.838709 70.724739 
-21.582001 -14.151978 67.210136 
-21.582001 -19.758860 66.901619 
-20.999166 -20.196001 65.503700 
-21.143362 -20.138462 64.915977 
-21.011156 -20.196001 67.084343 
-20.360706 -20.196001 67.318024 
-21.582001 -15.160294 65.792694 
-11.913048 -20.196001 55.060459 
-10.320292 -20.196001 53.297108 
-9.955378 -20.196001 54.474033 
-8.754914 -20.196001 54.471569 
-8.696770 -20.196001 55.822800 
-16.032017 -20.196001 51.657108 
-16.149834 -20.196001 52.240139 
-16.649908 -20.196001 51.866352 
-16.134874 -20.196001 50.373459 
-6.869481 -20.196001 58.189018 
-5.973525 -20.196001 55.778687 
-7.430305 -20.196001 55.459797 
-6.559126 -20.196001 54.516998 
-3.078323 -20.196001 60.175747 
-3.977536 -20.196001 61.830112 
-0.511878 -20.196001 58.069958 
-8.173339 -20.196001 69.737747 
-9.002538 -20.196001 70.479233 
-6.189577 -20.196001 67.735443 
-5.035500 -20.196001 69.418610 
-5.096468 -20.196001 68.137779 
-7.955182 -20.196001 64.817261 
-9.148552 -20.196001 65.892799 
-17.919565 -20.196001 70.671364 
-16.457516 -20.196001 71.612137 
-16.806154 -20.196001 72.646126 
-17.063166 -20.196001 67.502266 
-19.057758 -20.196001 66.380463 
-3.397171 -20.196001 72.795532 
-6.859466 -20.196001 73.341080 
-0.990022 -20.196001 75.409737 
-2.299883 -20.196001 75.681183 
0.353881 -20.196001 75.228828 
1.056425 -20.196001 76.378983 
1.049228 -20.196001 72.532425 
2.777706 -20.196001 73.149017 
-21.582001 -17.790617 75.688774 
-21.582001 -15.846864 76.075531 
-21.293259 -20.055424 73.988846 
-21.582001 -17.290985 81.975624 
-21.582001 -16.587721 80.435867 
-21.582001 -18.435268 81.964668 
-21.582001 -19.637257 81.831879 
-21.151978 -20.196001 82.871750 
-20.676985 -20.196001 79.541756 
-20.690351 -20.213367 78.727501 
-19.676189 -20.208117 77.961288 
-14.738114 -20.196001 82.496239 
-14.808704 -20.196001 83.552940 
-12.768302 -20.196001 81.787018 
-19.185911 -20.196001 80.639580 
-19.426134 -20.196001 82.839355 
-10.498548 -20.196001 81.785233 
22.018000 20.586380 40.676876 
22.018000 41.314503 52.819199 
22.018000 33.426960 56.461239 
22.018000 33.537457 55.708004 
22.018000 34.582157 60.978771 
22.018000 34.314159 61.550339 
22.018000 33.879280 62.205734 
22.018000 36.122505 59.784813 
22.018000 32.718105 61.050892 
22.018000 33.982540 60.954506 
22.018000 30.856066 59.355988 
22.018000 27.715725 54.368408 
22.018000 27.158035 48.967491 
22.018000 31.857924 44.582348 
-21.582001 26.866125 77.627274 
-21.582001 27.411915 77.859764 
-21.582001 25.117506 76.416420 
-21.582001 25.371159 78.307724 
-21.582001 24.077648 72.484665 
-21.582001 22.400181 73.338028 
-21.582001 21.786650 73.662239 
-21.582001 22.354166 74.006012 
-21.582001 21.776564 74.292717 
-21.582001 23.413279 74.999756 
-21.582001 23.874119 76.248962 
-21.582001 23.138607 76.597130 
-21.582001 23.812191 80.896774 
-21.582001 24.483904 81.177376 
-21.582001 21.859303 76.333954 
-21.582001 20.977503 77.294815 
-21.582001 20.090000 76.569145 
-21.582001 18.663464 76.590858 
-21.582001 20.733442 81.696808 
-21.582001 20.081921 81.870232 
-21.582001 20.021971 82.544617 
-21.582001 18.853933 79.488426 
-21.582001 18.523390 80.515244 
-21.582001 17.044128 81.453209 
-21.582001 16.388371 81.101891 
-21.582001 20.183197 78.319633 
-21.582001 19.783056 77.655205 
-21.582001 21.730074 78.134560 
-21.582001 22.294086 77.790123 
-21.582001 22.688723 79.533691 
-21.582001 21.502380 79.895401 
-21.582001 22.908051 80.206329 
-21.582001 19.689474 83.761406 
-21.582001 25.834856 86.397392 
-21.582001 19.769239 87.538734 
-21.582001 20.637236 85.469048 
-9.810877 -3.298056 127.000008 
-10.499457 -0.107801 127.000008 
-11.059852 0.383940 127.000008 
-11.190711 1.094419 127.000008 
-10.655542 1.413519 127.000008 
-14.125049 -1.837321 127.000008 
-11.744117 -0.028776 127.000008 
-12.313406 1.033109 127.000008 
-10.505380 4.574289 127.000008 
-12.344687 3.703371 127.000008 
-13.402094 4.697869 127.000008 
-11.865271 2.160915 127.000008 
22.018000 33.003811 66.456535 
22.018000 32.238190 66.609856 
22.018000 31.154219 65.816910 
22.018000 29.994072 65.733467 
22.018000 29.256763 66.027527 
22.018000 29.511208 65.232208 
22.018000 28.630022 62.331890 
22.018000 29.891878 61.207451 
22.018000 28.621227 60.247913 
