0.392581 0.599143 -0.931606 -1.648644 4.773669 -2.140201 
0.628219 0.443383 -0.902825 5.888078 -0.512899 2.110212 
0.057105 0.715436 -0.431083 2.984640 4.904347 -2.547466 
0.632782 0.659165 0.189575 -4.428017 3.944534 1.902745 
0.656208 0.670370 0.209422 -3.607629 4.481216 2.447968 
0.672735 0.668685 0.233463 -3.235159 4.682982 2.625509 
0.664235 0.652073 0.249622 -3.847248 4.219377 2.606691 
0.670121 0.628316 0.314377 -4.403375 4.259700 1.362726 
-0.831240 0.411175 -0.744602 -3.479846 4.749126 -2.114644 
0.798326 0.655357 0.349531 1.442545 5.102347 3.294680 
0.752530 -0.334443 0.632383 4.431293 -2.009331 -3.915091 
0.147944 -0.428935 -0.457021 4.038710 -4.548346 -1.340530 
0.258918 0.018614 0.715087 -4.813334 3.656122 -1.706436 
-0.704774 0.449358 -0.190504 -4.979968 3.319489 1.896334 
0.106832 0.631518 -0.228548 4.203698 3.134273 3.427722 
0.765787 -0.068309 0.582002 5.826844 0.963482 1.956967 
-0.432864 0.641127 -0.702799 -1.710815 5.652350 -2.103647 
0.221476 0.022813 0.649627 -1.025278 3.745607 4.937727 
0.685238 -0.605297 0.590835 5.884167 -1.870774 -0.343291 
-0.087412 -0.266659 0.803836 -4.908323 3.053493 2.313888 
0.202988 -0.031192 0.694755 -2.774345 4.711250 2.929638 
-0.722152 0.363020 -0.102951 -5.455272 2.502901 1.836929 
-0.413476 0.657162 -0.661589 -2.511585 5.655673 -0.820747 
-0.140059 -0.358408 -0.818169 -0.393631 -5.043826 -3.582580 
0.142028 0.630647 -0.364968 5.656973 2.584255 -0.812644 
-0.683222 0.388636 -0.048772 -4.665713 3.391207 2.474884 
0.813768 0.622397 0.385680 2.404519 4.487329 3.650256 
0.757816 -0.180231 0.554753 5.721538 -0.873963 -1.906428 
0.039477 0.684741 -0.544615 4.187588 4.141046 -1.980149 
0.673850 0.658286 0.052261 -2.396163 3.656246 -4.333043 
0.441043 0.418138 -0.708205 5.875668 2.167588 0.406677 
-0.687553 0.432550 -0.711610 -2.997326 5.131680 -1.192576 
0.682154 0.645774 0.297589 -3.932039 4.606262 1.620932 
0.301601 -0.132742 0.689250 3.175338 -5.404366 -0.028071 
0.662495 0.608550 0.357166 -4.386070 4.249932 1.315981 
0.237602 0.614377 -0.876966 4.758886 3.536741 2.044682 
-0.622315 0.501145 -0.116920 -3.800578 4.101223 2.860201 
0.051119 -0.264368 0.900373 4.185064 -4.609306 0.765479 
0.643555 -0.214873 -0.321718 2.205005 -5.861268 0.116478 
0.252102 0.020309 0.735138 -4.826039 3.639998 -1.657569 
-0.732705 0.405202 -0.196922 -5.418992 2.865315 1.370676 
0.146097 -0.207231 0.753759 2.040273 -5.777931 -1.269507 
-0.753193 0.407279 -0.351861 -5.547527 2.949194 0.014297 
0.489322 -0.116964 -0.920050 1.942844 -5.710041 0.383341 
-0.479462 -0.101769 -0.920145 -5.090037 -1.208760 -3.475218 
-0.584980 -0.261989 -0.397998 -3.866096 -4.877082 0.842241 
-0.292775 -0.391481 -0.227930 -1.949223 -5.253685 2.654475 
0.225049 -0.011423 0.682659 -2.741719 4.675076 2.810587 
0.408516 0.071658 0.431558 -4.576914 -0.551998 -4.182829 
0.933033 0.416338 0.333301 6.197795 -0.458349 0.659689 
0.054144 0.672148 -0.207240 3.283376 3.241539 4.198355 
0.661505 -0.344903 0.477654 -0.746603 -1.431574 -6.017643 
0.938259 0.330532 0.502947 4.709579 1.926899 3.576697 
0.553036 -0.211351 -0.061851 1.360864 -5.853717 1.752532 
-0.436859 0.675984 -0.535868 -3.231770 5.275116 -1.096544 
0.475283 -0.053249 -0.728700 4.785477 -4.015935 -0.443140 
0.469681 -0.255796 -0.355443 -0.037154 -6.161308 -0.995677 
-0.428102 0.688859 -0.486238 -2.891010 5.474460 -0.996782 
0.643560 -0.209994 -0.278675 2.468538 -5.719444 0.815372 
0.185974 -0.277184 -0.153186 0.937358 -6.072228 1.254562 
0.655792 0.610703 0.036473 -3.243348 2.164174 -4.891344 
0.701485 0.624585 0.022085 -1.285216 2.498136 -5.550323 
0.207928 0.651810 -0.870646 4.107614 3.854353 2.521832 
0.593111 -0.209098 -0.150453 2.083837 -5.891926 0.314524 
0.638948 0.648783 0.217537 -4.222832 3.852857 2.565499 
0.042829 0.653632 -0.188237 2.930008 2.562614 4.901465 
0.676657 0.626930 0.341332 -3.934762 4.605742 1.529129 
0.093151 0.594693 -0.551457 5.158416 3.031501 -1.913791 
0.596000 -0.553378 0.629027 -5.870275 -0.865728 -2.041683 
0.231833 -0.249587 -0.074364 1.206825 -5.776576 2.138273 
0.787442 0.675320 0.104328 3.487191 4.915369 -1.622758 
-0.771271 0.368560 -0.432213 -5.600916 2.844422 -0.062990 
-0.764786 0.372802 -0.564290 -3.227231 4.717253 1.407518 
0.513995 0.468691 0.308298 -3.264181 4.306550 3.175281 
-0.648558 0.538437 -0.227743 -4.103189 4.444884 1.658152 
0.879095 0.441979 0.496526 3.689503 2.753696 4.253438 
0.665061 -0.666807 0.633292 5.546412 -2.626164 -0.627899 
0.761001 0.519571 -0.263901 3.849873 4.949039 0.008384 
0.630324 0.652160 0.090319 -4.602752 3.236728 -2.675880 
0.627533 0.666326 0.131216 -4.730254 4.006096 -0.342512 
0.646053 0.639714 0.240568 -4.220027 3.744663 2.754285 
0.300548 -0.124222 0.632746 2.256267 -5.511893 -1.918971 
0.469386 0.353944 0.409517 -5.876410 1.849746 1.164064 
0.531231 0.608793 -0.891783 2.537257 5.308321 1.943763 
0.784475 -0.300658 0.648877 5.398697 -0.931520 -2.313989 
-0.421957 0.696042 -0.465476 -2.780024 5.398017 -1.434305 
-0.386022 0.712433 -0.474780 -2.221478 5.788825 -1.005127 
0.535363 0.005883 -0.642732 2.834144 -2.258971 -5.055015 
0.198488 0.668416 -0.888787 3.647595 4.764296 1.618130 
-0.015480 0.597433 -0.134909 1.293560 4.259654 4.245169 
-0.950192 0.327422 -0.670740 -5.045647 3.545258 -1.194044 
-0.753390 0.383303 -0.246926 -5.557291 2.821059 0.794829 
-0.716171 0.444014 -0.215244 -5.304431 3.070578 1.331210 
0.253177 -0.118791 0.828177 3.777781 -3.301755 3.715450 
0.583214 0.011887 0.533712 -2.362509 -3.951154 4.081964 
0.466175 0.319607 -0.669990 4.617123 1.511608 -3.762048 
0.232131 0.007045 0.663966 -1.779411 4.231789 4.147696 
0.262439 0.595781 -0.921092 4.478375 4.183636 -0.601565 
0.212059 0.575569 -0.805690 3.409574 3.069494 4.234918 
0.696462 0.548356 -0.327892 3.116569 5.290559 -1.323175 
-0.396588 0.587358 -0.926776 -1.417236 5.337701 -2.405020 
-0.750880 -0.095955 -0.300274 -5.639756 -2.750759 0.004854 
-0.854772 0.321735 -0.818638 -3.590605 2.770839 -4.329054 
0.142707 0.619988 -0.384219 5.541097 2.575033 -1.441506 
-0.004013 -0.133502 0.119138 1.019145 -3.402303 5.176773 
0.274514 -0.148341 0.696196 3.010324 -5.499187 -0.139783 
-0.037745 -0.143255 0.121478 1.188598 -3.603630 4.985690 
0.385790 0.465918 0.045166 -0.097033 4.638639 4.229757 
0.778075 -0.228403 0.662074 5.773083 1.233439 1.992212 
0.158130 0.591600 -0.783305 2.687550 2.816040 4.915236 
0.058023 0.608464 -0.682019 5.161019 3.562867 -0.369328 
-0.927541 0.364412 -0.604242 -3.998428 4.715379 0.911958 
-0.670185 0.504531 -0.621018 -4.548144 4.117362 -1.254238 
-0.685460 0.486452 -0.618064 -4.919032 3.656204 -1.344590 
-0.251662 -0.396794 -0.217515 -1.463399 -5.346985 2.915735 
0.153365 0.586449 -0.405419 5.306106 2.934898 -1.643926 
0.027323 0.682596 -0.570297 4.037779 4.290800 -2.119120 
0.758125 -0.453166 0.797840 2.692708 2.335468 5.132584 
0.676102 -0.192556 -0.245092 1.750045 -5.988232 0.725402 
0.621077 0.606869 0.066833 -4.674373 2.110744 -3.593044 
0.080729 0.706321 -0.280582 3.881870 4.297451 2.369503 
0.855298 0.010911 0.055380 3.862279 -4.154907 -2.658561 
0.049943 0.621635 -0.667662 5.147653 3.579736 -0.385273 
0.124899 0.623640 -0.427627 5.217116 2.631273 -2.305280 
0.648442 -0.725307 0.812996 4.876296 -3.735990 -1.293733 
0.083331 0.725253 -0.369393 3.770020 4.831370 -0.783675 
0.103637 -0.183663 0.929508 4.325770 -2.166769 3.945357 
0.891596 0.427381 0.024513 2.685591 -1.187263 -5.546898 
0.048361 -0.177518 0.855106 -4.008185 4.817626 0.212634 
0.175253 0.600751 -0.801084 3.129682 3.024976 4.515171 
0.151463 0.607753 -0.299005 5.160806 3.477619 0.631621 
0.626795 0.470847 -0.894228 5.813148 0.367683 2.210761 
0.020847 0.644001 -0.172483 2.448647 2.339206 5.281188 
-0.639287 0.500603 -0.139380 -4.009993 4.043858 2.650769 
-0.661645 0.501160 -0.177199 -4.351854 3.929171 2.238307 
0.572193 0.494549 0.483665 -3.025069 5.215789 1.319357 
0.622143 0.563256 -0.390592 1.772373 5.334464 -2.760453 
0.666319 0.570040 -0.312309 3.110566 5.370727 -0.862399 
0.230510 0.637542 -0.912868 5.010162 3.599889 -0.263722 
-0.071736 -0.342693 0.830497 0.844466 -5.450075 -2.339988 
0.089491 -0.135520 0.774949 -3.096348 5.140596 1.732753 
0.441985 0.210188 0.458044 -5.976920 1.800601 0.551435 
-0.987527 0.255371 -0.563040 -5.858729 1.667376 1.272688 
-0.734732 0.374777 -0.859149 -2.347665 3.401233 -4.709741 
-0.707365 0.469147 -0.499411 -4.903359 3.926789 -0.028575 
-0.610698 0.476862 -0.053765 -3.933115 4.431748 2.059517 
0.076976 0.626040 -0.196944 3.395359 2.959738 4.369956 
0.250127 0.594266 -0.868546 4.637329 3.528914 2.257407 
-0.057903 -0.342015 0.924179 -1.665941 -3.286966 2.407629 
-0.735163 0.005567 -0.094982 -5.052580 -2.291474 2.908882 
0.645795 0.573827 0.029049 -3.426244 1.700576 -4.966578 
0.065063 0.599692 -0.659897 5.238422 3.458704 -0.269999 
0.077370 0.580248 -0.668677 5.216816 3.495817 -0.178683 
0.602586 0.618956 0.179373 -5.400527 3.001863 1.121392 
0.108807 0.599752 -0.199313 2.410310 4.835861 2.965534 
0.627200 0.594094 0.265450 -4.875772 3.129724 2.416293 
0.184384 0.681010 -0.902792 3.294527 5.230976 0.917849 
0.395981 0.520788 -0.547131 2.887672 5.017264 -2.433228 
-0.511804 0.640496 -0.276776 -2.128786 5.754338 1.084251 
0.115579 0.649685 -0.421643 5.280922 2.450407 -2.353414 
0.447659 0.470681 -0.773035 2.955723 1.851632 5.161910 
0.098691 0.666665 -0.439314 4.993321 2.750798 -2.622306 
0.781232 -0.374653 0.742952 4.947117 1.742552 3.310479 
0.750227 -0.313613 0.618787 4.578789 -2.024232 -3.737659 
-0.105029 -0.279853 -0.081508 -0.513774 -6.062996 1.559384 
-0.040966 -0.257870 0.872535 -4.278195 4.219322 1.821475 
0.007280 -0.135496 0.644341 -1.556292 -2.229492 -5.571790 
-0.039423 -0.266127 0.897733 -4.592776 3.993941 1.550546 
0.079888 0.676721 -0.237629 4.090064 3.468395 3.239863 
-0.030568 -0.263198 0.920006 -4.877577 3.728799 1.296806 
-0.607008 0.501847 -0.098896 -3.606696 4.237154 2.895077 
0.028454 0.702559 -0.522204 3.515106 4.883644 -1.641314 
-0.758104 0.188490 -0.102503 -5.734794 0.529420 2.508898 
-0.696836 0.487579 -0.281279 -5.142866 3.606869 0.060426 
0.060291 0.724555 -0.410928 2.821230 5.029083 -2.445514 
-0.689843 0.497184 -0.256345 -5.142488 3.554670 0.489142 
-0.712235 0.468944 -0.430067 -5.165117 3.552850 -0.416678 
-0.418327 0.576122 -0.933972 -1.810308 4.337818 -3.688725 
0.187996 0.031807 0.594914 -2.856847 4.774840 -2.827197 
0.081949 0.717774 -0.397193 3.661360 4.565509 -2.019743 
0.002782 0.682667 -0.638920 3.489274 4.923417 -1.453718 
0.643711 0.554841 0.024398 -3.345595 1.655056 -5.039916 
0.387370 0.514735 -0.569957 3.300396 4.913408 -2.078327 
0.596943 0.611387 0.126533 -5.712337 2.389698 -0.957518 
0.612545 0.572136 0.263482 -4.777562 3.146851 2.575911 
0.624717 0.560232 0.319614 -5.395208 3.097946 0.832573 
0.520511 0.599084 -0.863114 1.813135 5.081387 3.076206 
0.031117 -0.116483 0.708140 -1.534057 4.190016 4.415350 
0.710842 -0.509581 0.544773 6.051432 -1.347089 -0.193881 
0.086037 0.629465 -0.515122 5.273870 2.893988 -1.812287 
0.554361 0.595215 -0.895080 3.583998 4.818570 1.742819 
0.099254 0.557241 -0.605566 5.090744 3.551131 -0.943937 
0.861806 0.079376 -0.417819 5.513009 -1.494445 -2.506395 
0.749192 -0.226669 0.505229 5.557481 -0.878171 -2.480112 
0.037366 0.695363 -0.215910 2.886701 4.062106 3.772965 
0.754106 -0.159382 -0.238657 3.582048 -5.120310 0.391983 
0.695873 0.111347 -0.899928 5.242687 1.398524 2.490815 
-0.532224 0.640625 -0.421963 -3.910430 4.769794 -0.992828 
0.121073 0.659024 -0.397487 5.458477 2.434382 -1.921425 
-0.672910 -0.140077 -0.645166 -4.700061 -3.651399 -1.958438 
-0.037540 -0.280593 0.934948 -5.174109 2.944281 1.960219 
-0.696196 -0.181420 -0.331469 -4.618566 -4.220945 -0.064250 
-0.129860 -0.018733 0.230634 0.918790 -2.114281 5.838119 
-0.046042 -0.280674 0.912260 -4.859556 3.530951 1.829194 
-0.665881 0.001576 -0.902618 -1.460096 -3.727275 -4.817559 
0.209406 -0.235242 -0.032751 0.138104 -5.536081 2.922286 
0.309307 -0.125676 0.719300 3.445147 -5.168006 0.838266 
-0.430507 0.662468 -0.248162 -4.153131 4.455784 1.527617 
0.856434 -0.030728 0.166519 2.753372 -5.601030 -0.632675 
0.444255 -0.079532 -0.784833 3.231220 -5.327633 0.767297 
0.616086 0.490160 -0.876198 5.505198 1.400574 2.583505 
0.610342 0.513293 -0.882334 5.303067 2.354727 2.360606 
0.133911 0.649935 -0.357033 5.658492 2.677670 -0.377016 
0.589601 0.595526 0.131457 -5.659917 2.555826 -0.920509 
-0.039911 0.427716 0.172745 1.824206 3.425524 4.923939 
0.603689 0.589050 0.229400 -4.796453 3.098360 2.617904 
0.119157 0.613058 -0.451715 5.106238 2.814101 -2.326996 
-0.549890 -0.173064 -0.818245 -3.671289 -1.865171 -4.724128 
-0.452394 0.649144 -0.610853 -2.823710 5.561409 -0.609365 
0.103088 0.628212 -0.470329 5.209176 2.718787 -2.218785 
0.064590 0.732869 -0.313796 3.120746 5.176754 1.528010 
-0.878244 0.363831 -0.755375 -3.798386 3.842247 -3.201367 
-0.843866 0.074984 -0.844076 -3.530966 -1.743405 -4.857831 
-0.370449 0.620854 -0.796791 -3.167161 4.093228 -3.560272 
-0.514680 0.593808 -0.699302 -4.236495 4.057580 -2.233130 
0.129428 0.629680 -0.264638 4.983949 3.163759 2.130379 
-0.487763 -0.168227 -0.883281 -5.275250 -1.118756 -3.223315 
-0.002930 -0.268209 0.777061 2.655394 -4.799175 -3.060327 
-0.393298 0.668713 -0.654249 -3.151381 5.385781 -0.417971 
0.433687 -0.044696 0.579508 3.245982 -5.285438 -0.854229 
-0.561482 0.591997 -0.201114 -3.510978 4.860916 1.848609 
-0.561168 0.600287 -0.227224 -3.635597 4.986629 1.096021 
0.684248 -0.095519 0.237547 0.471312 -6.222364 0.312135 
0.141302 0.631428 -0.315290 5.561794 2.827193 0.688244 
-0.552465 0.572818 -0.150524 -3.311806 4.695310 2.527224 
0.031594 0.638938 -0.699884 4.513580 4.192671 -1.188160 
0.214416 -0.115865 -0.734620 2.430912 -5.007241 0.601233 
0.202964 -0.139083 -0.675695 4.601201 -3.714103 -1.615066 
0.160991 0.501954 -0.737007 1.484658 4.571354 3.631428 
0.088339 0.613366 -0.534403 5.214974 2.976846 -1.847329 
0.582538 0.587106 0.161375 -5.333693 3.301014 0.073864 
0.576875 0.556270 -0.860582 4.467084 3.351993 2.738079 
0.599777 0.570277 0.243996 -4.522873 3.355323 2.768151 
0.090081 0.676461 -0.251560 4.376316 3.396084 2.939583 
0.296325 0.033567 0.773371 0.408261 4.602044 4.085535 
0.623436 0.546591 0.403429 -5.092327 3.586697 0.755008 
0.618748 0.534231 0.430007 -4.580541 4.170473 0.959416 
0.107077 0.534459 -0.707442 5.019499 3.630442 0.592018 
0.896412 0.124872 0.442594 4.839677 -3.925817 -0.648332 
0.937244 0.487626 0.039920 4.125350 -0.291198 -4.663868 
0.140413 0.516553 -0.739767 2.664026 3.578393 4.149760 
0.373749 0.515412 -0.606918 3.977730 4.802402 -0.744223 
-0.548566 0.588182 -0.564237 -2.950638 5.525869 0.434134 
-0.732875 0.429583 -0.526935 -5.572145 2.868382 -0.407496 
0.242892 0.585252 -0.845545 4.332235 3.197310 3.174020 
0.094462 0.657226 -0.237622 4.345855 3.188615 3.212883 
-0.004855 -0.171605 0.753456 -2.115826 4.694443 3.586210 
0.091416 -0.202061 0.037582 1.225969 -4.661841 4.022275 
-0.010683 -0.129106 0.705791 -2.125244 4.289719 4.005780 
-0.009910 -0.145065 0.721389 -1.771793 4.294773 4.227392 
0.474386 0.000129 0.362638 -4.279817 -4.362295 1.398571 
0.043377 0.715548 -0.447998 3.022664 5.081308 -2.106147 
-0.891136 0.033681 -0.778040 -4.094021 -3.183581 -3.522244 
-0.473442 0.677476 -0.447762 -3.343978 5.235509 -0.859948 
-0.747580 -0.043058 -0.567334 -5.757740 -2.191504 -1.217578 
0.773705 -0.623264 0.850193 4.652606 -2.533587 -0.924958 
-0.580632 0.493990 -0.789790 -3.612335 4.743237 -1.938374 
0.573803 0.559098 0.116563 -4.665968 3.582971 -2.127260 
0.136512 0.630937 -0.287237 5.315951 3.028214 1.377313 
0.598083 0.553668 0.261795 -4.249978 3.697307 2.735175 
0.222002 -0.299774 -0.328660 4.660056 -4.140545 0.081162 
-0.798778 0.301934 -0.433111 -5.976930 1.894386 -0.304445 
0.607644 0.522701 0.360602 -5.497665 3.021049 0.166136 
0.406827 0.488180 -0.596352 4.017672 4.425282 -1.882013 
0.589918 -0.329044 0.531367 -5.700840 -0.750300 -2.438517 
-0.408900 0.220642 0.245460 -2.350862 0.215342 5.822738 
-0.427500 0.199985 0.238467 -2.431915 0.185053 5.790317 
0.188300 -0.028792 0.837855 -2.830259 4.939025 1.366560 
-0.025702 0.639176 -0.790999 0.571081 5.670912 0.723443 
0.425217 0.031612 0.436836 -3.008827 -3.545369 -4.116107 
0.048572 0.707409 -0.241181 3.063130 4.544652 3.006611 
0.145751 -0.012904 0.661352 -0.981386 3.581033 5.060749 
0.171437 -0.016955 0.667866 -0.932553 3.749350 4.944335 
-0.968082 0.097879 -0.541148 -5.302555 -2.355370 2.318274 
0.024539 0.654738 -0.667788 4.543446 4.205884 -0.969169 
0.007707 -0.097979 0.684186 -2.664203 4.059506 3.767801 
-0.388328 0.348071 0.229130 -1.942950 2.061135 5.590220 
0.147884 -0.089997 0.751314 -3.429067 5.016387 1.472712 
-0.443283 0.177951 0.232405 -2.619409 0.034951 5.707325 
-0.719774 0.450150 -0.569838 -5.428818 3.050589 -0.583102 
-0.406655 -0.357213 -0.275592 -3.332576 -4.984511 1.719653 
-0.668704 0.510203 -0.209954 -4.557638 3.918204 1.788825 
-0.653111 0.542426 -0.357006 -4.630635 4.229527 0.162860 
0.765539 -0.575934 0.861731 2.925039 2.199650 4.815060 
-0.633889 0.498088 -0.706446 -3.958148 4.032649 -2.722712 
0.023293 -0.212866 0.981133 -1.443138 1.952029 4.309857 
0.014344 -0.212072 0.964337 -4.786776 3.647454 1.513379 
0.453126 0.351925 -0.727097 6.256800 -0.149066 0.375359 
-0.355129 0.386219 0.220241 -1.209212 3.195092 5.256660 
-0.379106 0.387093 0.213086 -1.717607 3.174317 5.122211 
-0.504647 0.539307 -0.793511 -3.247760 5.208164 -0.931365 
0.939241 0.081747 0.206947 5.369558 -3.223804 0.485432 
-0.454589 0.152361 0.226432 -2.789726 -0.254920 5.621364 
0.535440 0.128721 -0.803347 3.232661 2.521348 4.720223 
0.108976 0.639048 -0.445675 5.181351 2.557765 -2.466557 
0.793749 -0.431060 0.751677 5.676548 1.216316 2.038176 
-0.514763 0.485806 -0.916231 -4.447742 1.669472 -4.084057 
-0.362123 0.405927 0.205345 -1.296137 3.626113 4.947688 
0.894185 0.203050 0.548885 2.626497 -0.842285 5.626403 
-0.557114 0.496853 -0.836005 -4.428797 4.015324 -1.846345 
0.895121 0.062444 0.354788 5.211822 -2.833300 1.983588 
-0.102514 0.667998 -0.145964 0.867468 3.162860 5.318995 
-0.388032 0.407489 0.196299 -2.024550 3.624745 4.644129 
0.085134 -0.111160 0.726772 -2.173377 4.719090 3.508610 
-0.540242 0.601402 -0.499838 -4.448584 4.098361 -1.602778 
-0.492679 0.175642 0.207257 -3.047513 -0.091206 5.491188 
-0.505754 0.091487 0.192152 -3.345196 -0.852479 5.243711 
-0.509175 0.050754 0.180930 -3.484627 -1.451799 5.018475 
0.260566 -0.157041 -0.595833 0.628164 -5.632530 -2.707339 
0.634472 0.092723 0.577872 -0.507119 -0.896655 6.194300 
0.092053 -0.158026 0.947641 2.107611 1.010351 5.065358 
-0.686211 0.473712 -0.185712 -4.873733 3.363766 2.092600 
0.605570 0.123564 -0.829229 2.258142 2.166781 5.404403 
0.619344 -0.512207 0.563165 -5.276078 -1.187662 -3.185919 
-0.136282 0.633266 -0.127237 0.160904 2.111266 5.903027 
-0.898055 0.143250 -0.813752 -4.130274 -0.833267 -4.658131 
-0.430976 0.335501 0.213745 -2.795975 1.913563 5.284148 
-0.306095 -0.402335 -0.282045 -2.026150 -5.846081 0.661534 
0.018025 -0.195101 0.825426 -3.395583 5.082160 1.426119 
-0.479426 0.238072 0.212758 -2.828738 0.456605 5.587480 
0.029508 -0.168433 0.775484 -2.687173 5.037798 2.611412 
-0.542141 0.589987 -0.648578 -3.246480 5.205852 -1.333539 
0.160709 -0.204042 0.776155 2.653876 -5.662627 -0.136895 
-0.052806 -0.175221 0.683133 -3.870606 0.026571 -3.660501 
-0.545380 0.032214 0.147642 -3.677392 -1.645028 4.820949 
-0.466520 0.488385 0.057972 -1.876920 5.446648 2.487233 
-0.561155 -0.213375 -0.132141 -3.286404 -4.892390 2.172359 
0.591591 0.506761 0.038907 -3.297025 4.530784 -2.444989 
0.579268 0.517877 0.291607 -3.239215 4.543591 2.811788 
-0.479142 0.308928 0.201019 -2.281471 1.640698 5.600041 
0.620460 -0.139421 0.432703 -2.864134 -1.984977 -5.100062 
-0.179185 0.613913 -0.120715 -0.020423 2.494402 5.721387 
0.518316 0.606891 -0.941108 0.935454 3.883119 -4.224218 
-0.340787 0.720566 -0.560510 -2.301230 5.817260 -0.483290 
-0.321197 0.602030 -0.928952 -0.895508 5.140285 -2.387742 
-0.484050 0.347454 0.184190 -2.382041 2.337831 5.318233 
-0.485350 0.282955 0.204774 -2.595873 1.056493 5.592293 
-0.367159 0.715418 -0.286214 -2.857934 5.471923 0.773645 
0.380167 0.134186 0.522031 -3.917398 4.809586 -0.905183 
0.969331 0.198359 0.062888 5.454741 -0.695947 -2.906846 
-0.546911 0.054153 0.153331 -3.734589 -1.454746 4.838440 
0.005723 -0.111649 0.637980 -3.079925 0.056109 -4.945929 
-0.563659 0.022228 0.130476 -3.627608 -1.713554 4.834489 
-0.168339 0.666685 -0.141315 0.125534 3.046467 5.476378 
-0.471446 0.568017 -0.065932 -2.064407 4.435946 3.919786 
0.664331 -0.264162 0.724928 -2.750371 2.200980 5.184071 
0.494480 0.222214 -0.679544 2.436668 1.107448 -5.656390 
-0.494572 0.324118 0.189378 -2.579901 1.941849 5.360742 
-0.510898 0.245568 0.194695 -3.295563 0.394782 5.330157 
-0.509160 0.221741 0.196986 -3.289001 0.200357 5.346711 
-0.053695 -0.164961 0.714252 -4.153745 3.708390 1.652721 
-0.556097 0.132403 0.163036 -3.772364 -0.497912 4.993946 
-0.544266 0.093129 0.165645 -3.687749 -1.020597 4.980809 
-0.644429 -0.219604 -0.374741 -3.592996 -5.077589 -0.678879 
0.544074 0.545728 0.148259 -3.326515 5.175192 -1.185748 
0.796018 -0.492623 0.765586 5.604179 -0.812891 -0.710205 
-0.191494 0.656161 -0.135213 -0.095670 2.651726 5.656594 
0.651541 -0.328839 0.743411 -3.376799 1.798583 4.953091 
-0.889077 0.310607 -0.794442 -3.993428 2.778395 -3.954119 
-0.445099 0.418309 0.157375 -1.444125 3.626215 4.918896 
0.803178 0.577842 0.440830 2.350326 4.122825 4.099062 
-0.675911 0.516507 -0.397488 -4.881553 3.947125 0.091411 
-0.408377 0.687580 -0.280108 -3.588839 5.124991 0.447992 
0.219935 -0.182909 -0.578886 4.263281 -3.687221 -2.442923 
-0.662182 0.480404 -0.144694 -4.437929 3.726568 2.391276 
-0.189732 0.681679 -0.150129 -0.073544 3.647599 5.071890 
0.624825 -0.369658 0.734231 -4.428005 1.288728 4.228183 
-0.805110 0.129281 -0.281524 -6.266343 0.002531 0.423905 
-0.480767 0.433087 0.135044 -2.190950 4.025504 4.188564 
0.530413 0.404413 -0.813063 2.579001 -1.806288 5.431454 
-0.857517 0.018750 -0.799666 -3.642033 -3.313793 -3.888659 
-0.470040 0.641560 -0.630236 -2.507575 5.737582 0.066643 
-0.760408 0.075737 -0.109565 -5.832242 -0.690092 2.215522 
0.246395 0.615266 -0.918299 4.864976 3.722357 -0.649881 
0.876083 0.257757 -0.397779 5.246418 1.433066 -3.026382 
0.535464 0.524119 0.106362 -2.719558 4.840306 -2.886916 
0.534069 0.534971 0.131330 -2.933390 5.184019 -1.972842 
0.505231 0.135423 -0.771056 4.895778 3.165449 2.291378 
-0.381817 0.601928 -0.809558 -2.726253 4.742837 -2.986280 
-0.262968 0.452353 0.176780 -0.126580 4.589295 4.284800 
0.154807 -0.348988 -0.850994 -0.196742 -5.489197 2.980060 
0.677909 0.505217 -0.448246 2.509034 4.907482 -3.003103 
0.567719 0.496958 0.312563 -2.773857 4.619281 3.205213 
-0.410436 0.456357 0.136630 -1.863862 4.526350 3.919717 
0.571746 0.484504 0.400492 -4.331155 4.154387 -1.808754 
0.777709 0.562675 0.466769 1.444139 4.061225 4.543418 
-0.496717 0.367252 0.169457 -2.594767 2.513870 5.121030 
0.073045 -0.113033 0.619929 -1.305783 -2.731125 -5.478621 
-0.559897 0.235682 0.159800 -3.974061 0.369816 4.849605 
-0.001702 0.676780 -0.835345 -2.123636 5.141297 2.843192 
0.485378 0.370659 0.477755 -5.865026 2.132144 0.640403 
0.679268 -0.389933 0.486040 -0.116432 -1.188775 -6.128943 
-0.534172 0.368899 0.144438 -3.506113 2.586761 4.509662 
0.545471 -0.237866 -0.219308 2.995305 -5.492265 0.415341 
-0.561363 0.301759 0.149371 -3.832290 1.057103 4.863434 
-0.546575 0.288561 0.163892 -3.836586 0.912366 4.888075 
-0.547955 0.188224 0.171157 -3.781719 0.061365 5.013868 
-0.799770 0.043876 -0.385088 -6.077572 -1.505352 0.360045 
0.481869 0.372136 0.451767 -5.973439 1.727627 0.846785 
-0.540418 0.626922 -0.441772 -4.341066 4.271276 -1.507641 
0.590655 -0.566518 0.652865 -6.088380 -0.537836 -1.422068 
-0.643931 0.286289 -0.934223 -1.748854 1.770897 -5.767065 
0.676531 -0.080900 0.366600 0.874731 -6.177998 -0.344300 
0.148182 0.686578 -0.944195 1.467947 3.099036 -4.745053 
0.222465 -0.166773 0.792473 3.439797 -4.963730 1.656247 
-0.430084 0.578031 -0.808954 -2.437757 5.517476 -1.074972 
0.577568 0.173247 -0.661489 1.629932 -0.301008 -6.047546 
-0.592037 0.205883 0.134113 -4.217968 0.237608 4.647363 
-0.584485 0.181270 0.141794 -4.133176 0.071308 4.726424 
-0.597029 0.089922 0.123076 -4.025759 -0.901468 4.734628 
0.150916 0.009042 0.646085 -1.499182 4.379915 3.948311 
-0.597912 0.030298 0.106905 -3.825032 -1.594222 4.719578 
0.083877 -0.081291 0.694095 -1.621003 3.988838 4.559085 
0.904016 0.195768 -0.006299 5.451888 -0.413972 -2.571291 
-0.568570 0.324522 0.138335 -3.712175 1.573269 4.799177 
0.545158 0.534542 0.228868 -2.800208 5.085659 2.382049 
0.540133 0.521823 0.248198 -2.763038 4.969703 2.663160 
0.525100 0.490547 0.288218 -3.036255 4.631210 2.926863 
-0.623078 0.075588 0.097442 -4.283001 -0.831744 4.511829 
0.558774 0.476737 0.414343 -4.664268 3.841842 -1.519178 
0.095479 0.557338 -0.633671 5.109900 3.618356 -0.508369 
0.108746 0.536599 -0.649195 5.106794 3.632211 -0.437873 
0.145646 0.563472 -0.458149 4.651697 3.521662 -2.208191 
0.422259 0.051608 0.422875 -4.539718 -2.442668 -3.448138 
-0.696989 0.402936 -0.098277 -4.829115 3.394671 2.141595 
0.443349 0.613991 -0.906267 -1.886255 5.863437 0.946939 
0.364016 0.520394 -0.631553 3.695280 5.032447 -0.567290 
0.298890 -0.257837 -0.317487 1.287201 -5.967340 -1.307734 
0.782059 -0.206211 0.624707 6.187780 0.473007 0.230405 
-0.546606 0.399043 0.111806 -3.486241 3.373110 3.989893 
-0.961770 0.306437 -0.682214 -5.318234 2.985065 -1.369129 
-0.644863 0.480365 -0.116004 -4.012475 4.085959 2.572482 
-0.555420 0.348846 0.138094 -3.604265 2.271882 4.609169 
-0.581116 0.304824 0.133414 -3.947521 0.987808 4.774219 
-0.092941 0.648107 -0.137842 1.152375 2.507803 5.625898 
0.509815 -0.255958 -0.294696 1.303221 -6.112788 -0.489457 
0.020407 -0.187156 0.805646 -3.141444 5.101493 1.869157 
0.203311 -0.350361 -0.856825 0.954575 -5.245852 3.218564 
-0.505427 0.660973 -0.398363 -3.194839 5.396350 -0.277733 
0.658950 -0.220025 0.702563 -2.789823 2.302468 5.120173 
0.963410 0.442401 0.226631 6.081291 0.383306 1.516615 
-0.628794 0.202389 0.097703 -4.648726 0.180974 4.219236 
-0.643743 -0.203789 -0.489784 -4.754431 -4.091895 -0.053674 
-0.626774 0.158227 0.100875 -4.592388 -0.033333 4.282990 
-0.808452 0.216055 -0.373000 -6.248205 0.358848 0.551593 
-0.646002 0.058743 0.069767 -4.756947 -0.991969 3.951605 
-0.707264 -0.092344 -0.638793 -5.290945 -2.546933 -2.086673 
0.655713 -0.241436 0.710506 -2.987012 2.208984 5.031542 
0.631972 -0.301286 0.717239 -4.034142 1.704526 4.481452 
-0.800347 0.093599 -0.876864 -3.133309 -1.268312 -5.289706 
-0.589076 0.342935 0.114169 -3.890451 2.105001 4.440331 
0.535447 0.463088 0.334189 -2.968429 4.646691 2.980583 
0.560708 0.467306 0.392536 -4.430583 4.202271 -1.198140 
0.546982 0.471505 0.451724 -5.163987 3.422903 -0.766676 
0.454481 0.611448 -0.884456 -1.511269 5.658361 2.126858 
0.161449 0.149062 0.201064 -0.705617 -0.136241 6.216135 
-0.611398 0.298789 0.106721 -4.423470 0.851556 4.366467 
-0.506607 0.463669 0.069879 -2.705013 4.927450 2.804005 
-0.621497 0.280331 0.098949 -4.548357 0.592531 4.291272 
-0.638244 0.224268 0.085817 -4.770620 0.260940 4.076359 
-0.963321 0.069268 -0.568586 -5.226188 -3.103297 1.338074 
-0.529913 0.583033 -0.137745 -3.366392 4.564104 2.698165 
0.182029 -0.229678 -0.771980 4.110526 -1.928560 4.221159 
0.022324 0.641008 -0.722656 4.013370 4.412954 -1.850796 
0.266068 0.039268 0.643531 -1.501814 4.429591 4.035798 
-0.602153 0.323776 0.109736 -4.254491 1.428386 4.375344 
0.265426 0.074884 0.594288 -2.613348 5.381834 0.123944 
-0.633697 0.270306 0.086876 -4.722179 0.513754 4.108022 
-0.489455 0.659457 -0.324861 -2.153581 5.643143 1.635347 
0.834070 0.421492 0.535225 2.342103 2.455213 5.279923 
-0.701539 -0.163068 -0.375138 -4.772777 -3.558820 -1.932954 
0.478188 0.103767 0.642135 2.377702 3.317172 4.722874 
-0.660353 0.195082 0.059280 -5.026205 0.134513 3.766527 
-0.684697 0.110187 0.024506 -5.065096 -0.277623 3.706967 
-0.687691 0.084463 0.017845 -5.074344 -0.647224 3.638374 
0.493887 -0.007717 0.401512 -3.355259 -5.057347 1.529932 
0.726088 -0.628214 0.895556 0.554357 2.187789 5.638347 
-0.657838 0.537175 -0.408451 -4.568386 4.269091 -0.455199 
0.868155 -0.005025 0.271616 4.127837 -4.275073 2.008535 
0.607126 0.484224 -0.857002 5.129797 1.028762 3.366272 
0.205006 0.030141 0.578190 -2.952318 4.310277 -3.463728 
0.185286 0.014920 0.575893 -2.939791 3.670641 -4.066897 
-0.946471 0.339201 -0.649450 -5.021004 3.637655 -1.007813 
-0.697458 0.124378 0.007973 -5.097495 -0.205786 3.666405 
-0.630359 0.460659 -0.059276 -4.257840 3.962281 2.355350 
0.456181 0.387296 -0.652428 5.431137 2.185718 -2.129381 
0.636859 0.365369 0.582710 -0.319592 1.476554 6.094765 
-0.049854 0.662821 -0.156544 1.503077 2.905022 5.343992 
-0.666829 0.291788 0.041043 -5.099236 0.791642 3.575769 
-0.552942 0.624708 -0.375129 -4.374762 4.501310 0.189345 
-0.662730 0.237646 0.054165 -5.027461 0.274418 3.754688 
-0.687876 0.181070 0.022025 -5.086082 0.103827 3.686964 
0.626236 0.346835 0.586090 -0.397278 1.175675 6.154753 
0.559857 0.174773 0.587065 -0.024846 0.060898 6.278182 
-0.631130 0.359233 0.059990 -4.552948 2.402132 3.589559 
-0.660349 0.332217 0.037300 -4.930162 1.698262 3.485417 
0.864773 0.386094 -0.304656 5.492763 2.879440 -0.986677 
0.487254 0.494804 0.117480 -4.131204 4.303752 -1.932225 
-0.482579 0.013052 0.184376 -2.937711 -2.324040 5.020608 
-0.596156 -0.154477 -0.773108 -5.179820 -1.645709 -3.122906 
0.547077 0.458245 0.409268 -4.875321 3.797542 -1.075444 
0.578321 0.251247 0.588880 -0.600145 0.008480 6.252752 
-0.672823 0.239848 0.040040 -5.096948 0.286837 3.661692 
-0.698229 0.195343 0.006964 -5.153546 0.187496 3.587988 
-0.710322 0.135566 -0.009524 -5.178188 -0.164900 3.550800 
0.931614 0.270906 -0.203367 6.207632 0.662018 0.533453 
0.887657 0.316219 -0.074569 5.385762 2.063906 2.490182 
0.594855 -0.130034 0.570194 -5.713601 1.621367 1.983667 
-0.394958 0.693741 -0.260689 -3.234397 5.214949 1.244448 
0.529194 -0.250085 -0.244874 2.901497 -5.543448 0.325980 
-0.689454 0.269069 0.012257 -5.217281 0.699641 3.425068 
0.020989 -0.275582 -0.076800 -0.217990 -6.017869 1.789224 
-0.676074 0.509673 -0.476932 -4.456344 4.329739 -0.783581 
-0.049657 0.445904 0.162555 1.620057 3.768507 4.745871 
-0.579963 0.574375 -0.189510 -3.280023 4.929664 2.080442 
0.661286 0.397905 0.574161 -0.038317 1.937889 5.972195 
-0.672255 0.346956 0.010719 -4.992472 2.065811 3.192641 
-0.454643 0.639218 -0.694982 -1.567196 5.733619 -1.903183 
-0.697758 0.285539 -0.004934 -5.294251 0.921288 3.251922 
-0.481988 0.671826 -0.365165 -2.737146 5.565073 0.958297 
0.714512 0.440142 0.556476 0.449634 2.511460 5.730571 
-0.446087 0.580641 -0.861637 -2.169535 5.769502 0.471598 
0.761607 0.491981 0.522320 1.043051 3.264397 5.255013 
0.297998 0.342381 0.172159 1.125938 3.103885 5.332263 
0.045914 -0.186592 0.975023 -0.559930 2.519831 4.374024 
0.480479 0.471576 0.078947 -3.264752 5.171549 -0.649815 
0.477786 -0.101466 -0.875829 2.004770 -5.187003 2.919104 
0.586383 -0.579693 0.681723 -6.230822 -0.155288 -0.679317 
-0.748400 -0.083664 -0.366246 -5.562625 -2.736647 -1.000948 
0.306038 0.274893 0.205246 0.257645 2.658724 5.679280 
0.502043 0.416698 0.377050 -4.343925 4.303369 1.342159 
0.523287 0.433175 0.418246 -4.253706 4.596938 -0.440567 
0.528817 0.440933 0.525241 -4.596298 3.528347 1.992871 
0.058488 -0.163879 0.807610 -3.406242 5.118286 1.207430 
0.063841 -0.164054 0.835273 -3.855639 4.932259 0.337358 
-0.477963 0.652945 -0.525648 -3.407521 5.012493 -1.624271 
0.574150 0.089585 0.580794 1.970221 -1.071947 5.807095 
0.861645 0.169301 0.556845 2.365723 -1.192828 5.688056 
0.947621 0.222923 0.330405 6.015579 -0.846715 1.402926 
-0.541520 0.600860 -0.186472 -3.396693 4.821836 2.102360 
-0.772224 0.344568 -0.251544 -5.757044 2.374531 0.816687 
-0.480564 0.635046 -0.584332 -3.583708 5.120967 -0.582238 
-0.741971 0.428844 -0.363706 -5.472893 3.072645 -0.052262 
0.592060 0.107182 0.580228 0.743391 -0.918883 6.161969 
0.604866 0.084937 0.575215 0.212043 -1.314507 6.124065 
-0.513993 0.442824 -0.930065 -3.836712 1.225213 -4.808182 
-0.548024 0.471749 -0.880057 -4.785233 2.278958 -3.365373 
0.965268 0.347572 0.274170 5.582304 1.057094 2.649489 
-0.287697 0.667086 -0.796014 -0.883007 4.753572 -3.944021 
-0.462672 0.646212 -0.587696 -3.343640 5.229293 -0.909635 
0.674760 -0.154962 0.678426 -2.095475 2.786309 5.193522 
0.573827 0.192487 0.587964 -0.313921 -0.144024 6.272086 
0.489412 0.434916 0.324286 -3.758106 4.031579 3.014016 
0.551467 0.225122 0.586031 -0.839785 0.110060 6.222317 
0.728114 0.307717 0.589273 0.595801 0.564105 6.225963 
0.534440 0.337883 0.573653 -1.723178 1.020140 5.936545 
-0.488154 0.668307 -0.438079 -3.601263 5.110509 -0.617369 
0.454671 0.257347 0.488697 -6.097342 1.373127 0.364507 
0.596472 0.320705 0.587726 -0.706995 0.767526 6.189055 
0.534185 0.115112 0.601988 3.029824 1.520293 5.264043 
-0.594841 0.585302 -0.367087 -3.661996 5.034011 0.656365 
-0.556165 0.614752 -0.287463 -4.107162 4.654460 0.832271 
0.307533 0.226289 0.223589 -1.069383 1.808024 5.890553 
-0.910280 0.359876 -0.562046 -2.560593 4.924688 2.828039 
0.088204 0.100289 0.207135 1.476057 -0.728408 6.062792 
-0.607602 0.541712 -0.652183 -3.301837 5.134062 -1.469847 
0.636283 0.298056 0.592428 -0.224226 0.287347 6.267418 
0.246443 0.025879 0.214351 -2.058242 -1.285520 5.784780 
0.294674 0.361859 0.160934 1.160609 3.513264 5.044222 
0.811085 0.428835 0.541465 2.016727 2.430518 5.416898 
-0.414905 0.654009 -0.203597 -3.037184 4.765436 2.688835 
0.127694 0.044583 0.189663 0.684081 -1.393150 6.081857 
-0.460429 0.654299 -0.286178 -1.938156 5.622957 1.929109 
-0.504109 0.634787 -0.521261 -4.116283 4.321301 -1.862533 
0.645728 -0.709641 0.719030 5.606006 -2.825449 -0.119508 
-0.444692 0.576609 -0.903975 -2.561079 5.493306 -1.446872 
0.624516 -0.682995 0.879167 -3.849767 2.850220 4.016916 
0.467853 0.482894 0.138443 -4.410905 4.237875 -1.426751 
0.465079 0.484483 0.175293 -4.582931 4.242433 0.500554 
0.455100 0.454980 0.241742 -4.242610 4.243276 1.829077 
-0.503394 0.512449 -0.916509 -4.377762 2.340114 -3.761665 
0.198135 0.133398 0.210225 -2.001172 -0.313462 5.946118 
0.525182 0.441592 0.361374 -3.584721 4.760631 1.884776 
0.357973 0.164734 0.265131 -4.567099 -0.060870 4.271993 
0.340310 0.582742 -0.913397 -2.014699 5.848545 0.505054 
0.072276 -0.249093 0.885039 3.948407 -4.774673 0.927230 
-0.648585 0.481776 -0.706303 -4.329855 3.616387 -2.760587 
0.241632 0.134784 0.225098 -1.711322 -0.094669 6.038431 
0.941507 0.193968 0.335706 5.874372 -1.265904 1.754010 
0.240339 0.106786 0.223521 -1.791736 -0.390770 6.004018 
0.856255 0.383914 0.007020 3.898830 1.651914 -4.429389 
-0.596131 0.430851 0.040274 -3.775359 3.768033 3.245608 
-0.615142 0.469478 -0.775371 -4.287532 3.746237 -2.650848 
0.222742 0.177146 0.218952 -1.702347 0.322668 6.031639 
-0.953468 0.144006 -0.751117 -5.425959 -0.800808 -3.021513 
-0.995079 0.197148 -0.643592 -6.182251 0.392955 -0.984686 
-0.635517 0.536493 -0.560365 -3.277326 5.359557 0.032884 
-0.702594 0.483988 -0.399110 -4.844943 3.993944 0.018563 
0.360903 0.307634 0.206630 -4.865717 2.541945 2.867439 
0.355874 0.190204 0.261462 -4.726890 0.471532 4.069787 
0.346193 -0.104635 0.670463 3.455567 -5.238438 0.122179 
0.101044 -0.352682 -0.205143 2.799900 -2.067739 5.205513 
-0.485747 0.672258 -0.389470 -3.176029 5.410984 0.221750 
0.583541 0.444387 0.552778 -0.946144 2.875623 5.468221 
0.126422 -0.129606 0.925243 2.956393 0.448501 5.331327 
0.114153 -0.121110 0.825689 -4.400418 4.334816 -0.885446 
0.609111 -0.102511 0.425158 -4.138011 -2.464796 -3.909461 
0.889156 0.000415 0.236068 4.621694 -3.869694 1.686947 
0.920917 0.260656 0.537878 3.445700 0.424181 5.187438 
0.949113 0.286655 0.507104 5.140986 0.894129 3.248323 
0.203787 0.196573 0.212126 -1.822209 0.573420 5.973748 
0.447416 0.261417 -0.818132 5.056151 -0.397135 3.280932 
-0.793545 0.262168 -0.258491 -6.192367 0.672351 0.810899 
0.461382 0.481273 0.155066 -4.558934 4.203199 -0.545951 
0.463817 0.470588 0.222503 -4.276015 4.347850 1.493370 
0.357689 0.271575 0.238232 -5.432086 2.069633 2.355154 
0.480835 0.442355 0.304104 -3.823967 4.021585 2.940883 
0.470968 0.424910 0.314462 -3.995054 3.746037 3.061289 
0.578859 0.463102 0.539946 -1.373239 3.802726 4.725969 
0.496495 0.408240 0.450995 -5.068093 3.473927 0.542420 
0.765763 -0.636503 0.874411 4.156118 -1.916353 1.856360 
0.810139 0.434885 -0.383553 4.264907 3.666798 -2.773787 
0.548150 0.301116 -0.890255 4.083862 -2.836491 3.759900 
0.353729 0.235776 0.249097 -5.024218 1.210409 3.530488 
0.619079 0.046842 -0.626664 2.310983 -1.527165 -5.635193 
-0.600633 0.441916 -0.830505 -4.441975 3.194814 -3.074995 
-0.249744 0.611759 -0.934185 -0.926175 4.939958 -2.729545 
0.274849 0.312382 0.190250 0.082144 2.745058 5.639232 
-0.662828 0.517568 -0.595693 -4.053973 4.702388 -0.604634 
-0.523427 0.638396 -0.302856 -2.945530 5.492136 0.761246 
0.729960 0.184009 0.589841 0.474212 -0.486106 6.237575 
0.666363 -0.122184 0.655868 -3.014758 2.715001 4.761776 
0.596591 -0.311307 0.512758 -5.401278 -0.782249 -3.038622 
0.638868 -0.223506 0.690899 -3.746218 2.129352 4.531615 
0.438124 0.303943 0.359617 -5.202445 1.996808 2.887786 
0.628945 -0.252073 0.695017 -4.044086 1.878714 4.390168 
0.173618 0.013754 0.645264 -1.058592 3.923090 4.781354 
0.071234 -0.138227 0.913699 -4.627619 3.976320 -0.455873 
0.040653 -0.182396 0.904230 -4.743155 4.030605 -0.728332 
0.406179 0.281432 0.320857 -5.083323 1.446280 3.396779 
-0.164457 0.760128 -0.502662 0.073952 5.771440 -2.465419 
-0.666996 -0.017811 -0.884827 -1.198359 -4.557168 -4.098730 
0.345513 0.311736 0.188205 -2.264028 3.321317 4.616606 
0.346146 0.289523 0.200911 -2.898606 2.756046 4.322415 
0.227028 0.033946 0.208583 -2.284895 -1.250122 5.713531 
0.459018 0.439883 0.276696 -4.072802 4.034366 2.561066 
0.364130 0.115264 0.264768 -4.244348 -1.035682 4.480383 
0.334386 -0.069414 0.781701 4.129352 -2.325126 3.957051 
0.559384 0.093346 -0.656273 2.295547 -1.049497 -5.741416 
-0.572405 0.474312 0.005897 -2.970473 4.494209 3.210245 
-0.564678 0.454572 0.039539 -2.616525 4.540068 3.445191 
0.370903 0.406772 0.106535 -0.214585 4.333793 4.486742 
-0.714696 0.218967 -0.922610 -2.503886 0.828889 -5.701554 
0.378003 0.313633 0.254027 -5.589890 2.040854 1.962588 
0.426411 0.342408 0.320602 -4.875844 1.958971 3.440846 
0.044153 -0.428020 -0.226032 1.207151 -4.401912 4.235453 
0.186617 0.466542 0.043266 0.686642 4.912718 3.852452 
0.790944 -0.091986 -0.105560 4.133980 -4.451830 1.551843 
-0.464534 0.665976 -0.506158 -2.903845 5.376651 -1.427700 
-0.484323 -0.082570 -0.920339 -4.777617 -1.544442 -3.765390 
0.638332 -0.584314 0.819541 -3.989628 2.480453 4.159910 
0.214197 0.019263 0.199764 -2.409384 -1.539547 5.585857 
-0.620864 0.062988 -0.946644 -1.384984 -1.540172 -5.881182 
-0.636261 -0.209411 -0.536147 -4.061675 -4.787266 -0.176011 
0.219035 0.062642 0.211165 -2.192040 -0.996232 5.797771 
-0.540473 0.616970 -0.238131 -3.346569 5.172025 1.169362 
0.259146 0.146079 0.229391 -1.371045 0.203167 6.123569 
0.293651 0.058436 0.707822 -3.773212 4.770703 -0.459555 
-0.528746 0.628925 -0.259010 -3.036989 5.366065 1.100611 
0.294768 0.202508 0.228537 -0.861371 1.384432 6.064862 
0.793581 0.362881 0.569144 1.452481 1.565396 5.901353 
0.548017 0.404469 0.562183 -1.545703 1.945803 5.718671 
0.400121 -0.067207 0.659316 3.871679 -4.854654 0.906983 
-0.505671 0.425323 0.124968 -3.110404 3.909774 3.766549 
-0.611643 0.458885 -0.795369 -4.433825 3.490934 -2.756741 
0.339809 0.198648 0.244319 -3.646750 1.139712 4.913842 
0.750553 0.203755 0.589100 0.743077 -0.360690 6.221422 
0.394217 0.238630 0.316826 -5.368358 0.812648 3.159619 
-0.693648 0.070108 -0.924865 -2.125216 -1.534671 -5.704952 
0.458713 -0.119173 -0.577896 2.553342 -4.849738 -2.971650 
0.834712 0.117364 0.554775 2.356323 -1.695390 5.564274 
-0.126586 -0.281846 -0.098657 -0.672923 -5.983148 1.726758 
0.713580 -0.451730 0.804767 -0.794719 2.124741 5.828105 
-0.616867 0.547355 -0.508682 -3.020385 5.479062 -0.416534 
-0.543772 0.510312 -0.027321 -2.147847 5.336164 2.391552 
-0.772520 0.366748 -0.407027 -5.596425 2.851247 -0.147051 
0.250859 0.212239 0.221189 -0.993162 1.089587 6.097878 
0.764087 0.461231 0.539943 1.149356 2.855761 5.452384 
-0.518354 -0.042041 -0.911860 -2.962554 -3.471658 -4.288843 
-0.544333 0.626799 -0.305657 -3.511487 5.146791 0.581941 
0.427725 0.448754 -0.642720 5.092992 3.529770 -0.944683 
0.936794 0.445460 0.313952 6.201615 -0.202372 0.814099 
-0.659042 -0.107169 -0.704736 -4.441497 -3.099201 -3.183564 
-0.500575 0.579378 -0.100750 -2.753493 4.643855 3.198659 
0.135670 -0.310880 -0.799604 2.235482 -4.870735 3.069824 
0.782201 0.475956 0.527063 1.540408 3.051701 5.256250 
0.725001 -0.118841 0.659061 2.232997 2.801718 5.106107 
0.475067 0.375213 0.393020 -5.503344 2.782289 1.141479 
0.275320 0.441393 0.072988 -0.794718 4.980882 3.743958 
0.648866 -0.521535 0.798230 -3.729598 1.857241 4.687077 
0.289627 0.049791 0.230189 -1.196680 -0.779107 6.107502 
-0.691591 0.431795 -0.130930 -4.820148 3.394557 2.168398 
0.574507 0.278655 0.588207 -0.799784 0.242090 6.220066 
0.934278 0.430325 0.361575 6.266555 -0.397334 0.090312 
-0.736351 -0.045664 -0.158369 -5.347305 -2.937078 1.495035 
0.707663 0.166488 0.589399 0.182735 -0.544270 6.251915 
0.171289 0.284987 0.178429 -1.357605 2.751633 5.474401 
0.293663 0.026884 0.227331 -1.093876 -1.211863 6.051380 
-0.694200 0.445865 -0.665258 -4.900934 3.427984 -1.884596 
0.578604 -0.034516 0.482400 -5.403729 -2.317235 1.992710 
0.483804 -0.120402 -0.562828 1.538039 -4.172978 -4.394108 
-0.293067 0.606350 -0.923159 -0.779107 5.901133 -1.366787 
-0.452281 -0.134684 -0.944174 -3.072332 -0.411138 -5.129471 
-0.979409 0.130947 -0.680351 -5.796658 -1.347197 -1.993899 
-0.558629 0.494254 -0.009931 -2.546911 4.844767 2.979750 
0.633792 -0.564010 0.804107 -4.184431 2.100844 4.176875 
0.657746 -0.156934 0.670268 -3.234396 2.714821 4.612265 
0.893252 0.356319 0.028167 3.947695 1.134546 -4.733486 
-0.559241 0.548771 -0.114680 -2.946535 4.713719 2.924884 
-0.591792 0.550584 -0.153231 -3.137521 4.892722 2.345592 
-0.554141 0.523528 -0.073407 -2.709775 4.913775 2.800788 
0.790960 0.296659 0.581114 1.250261 0.593337 6.126021 
0.672153 -0.459972 0.793414 -2.802603 1.519800 5.398581 
0.608795 -0.457365 0.555595 -5.162412 -1.583957 -3.194295 
0.265381 0.091121 0.229101 -1.440952 -0.521855 6.086761 
0.653280 -0.563049 0.820432 -3.559910 2.384474 4.590161 
-0.566677 0.609806 -0.337574 -4.459424 4.411685 0.197864 
-0.546436 0.611496 -0.460706 -4.463505 4.042428 -1.762482 
0.629924 -0.202456 -0.416599 2.067689 -5.610528 -1.850994 
0.486884 0.370585 0.504099 -5.723320 2.549905 0.336248 
0.834427 0.255803 -0.448321 4.957944 1.159373 -3.645090 
0.438834 0.453749 0.177027 -4.886588 3.912527 0.430668 
0.864517 0.341368 -0.036592 5.644141 2.588302 0.618555 
0.445262 0.453110 0.219091 -4.485601 4.210065 1.216499 
0.416364 0.415447 0.224234 -5.145557 3.336782 1.262292 
0.293826 0.576440 -0.312270 1.312556 6.129604 0.208130 
0.645748 -0.302164 0.469264 -1.756346 -1.459645 -5.760964 
-0.702982 0.084316 -0.004165 -5.182175 -0.741021 3.462318 
0.934031 0.082383 0.287360 5.408330 -2.828068 1.033909 
0.621043 0.038605 0.564447 -1.931177 -1.347567 5.764500 
-0.075347 -0.322591 0.903182 -5.195324 0.389428 2.549998 
0.497492 0.135258 -0.746044 5.228948 3.264379 1.094135 
-0.779475 0.350988 -0.443105 -5.747881 2.519645 -0.227024 
0.463660 -0.099123 -0.621541 3.926269 -4.688712 -1.394564 
0.719712 -0.154587 -0.401228 4.023526 -4.181804 -2.363354 
-0.584009 0.581710 -0.219238 -3.452738 5.078534 1.286461 
0.066069 0.425745 0.129499 2.199908 3.534878 4.693885 
-0.515963 -0.271832 -0.759122 -3.327919 -4.463460 -2.828396 
-0.636285 0.559143 -0.257296 -3.550440 4.952309 1.171945 
-0.730763 0.440135 -0.446358 -5.238270 3.457137 -0.263080 
0.463923 0.305762 0.435226 -6.111567 1.156289 0.836810 
-0.563201 0.612428 -0.311967 -4.338615 4.460219 0.489172 
0.935104 0.235764 -0.226319 6.260974 0.185866 0.079652 
0.142883 0.193407 0.200030 0.154521 0.504029 6.242364 
-0.815627 0.207486 -0.446133 -5.794952 0.484289 2.037721 
-0.819372 0.164448 -0.456322 -5.406044 -0.440540 2.759237 
-0.766143 0.278943 -0.152319 -5.767012 1.000377 2.269715 
-0.538362 0.517044 -0.827748 -4.000839 4.778952 -0.480097 
-0.058723 -0.271203 -0.055736 0.776595 -5.718987 2.463977 
0.413411 0.111809 0.429873 -5.719564 0.980181 -2.233130 
0.577459 -0.143512 -0.527388 1.901583 -3.773072 -4.599154 
-0.527808 0.544654 -0.749251 -3.415362 4.328106 -2.989840 
-0.543440 0.519566 -0.779198 -3.028903 5.250285 -1.590295 
0.425508 0.435903 0.175695 -5.116852 3.632935 0.223441 
-0.177401 -0.335440 -0.834297 -1.104253 -4.321556 -4.423763 
-0.802068 0.286381 -0.457685 -5.895000 2.009001 0.432358 
0.431934 0.416107 0.266032 -4.693798 3.459047 2.274589 
0.825425 0.396217 -0.402971 4.442212 2.579539 -3.533024 
-0.770198 0.156987 -0.125929 -5.837927 0.266772 2.296825 
0.792636 -0.023539 0.033427 3.830690 -4.705145 -0.709233 
0.875266 0.293832 0.556350 2.290368 0.891336 5.771942 
-0.574690 0.517708 -0.743431 -2.881667 4.859885 -2.732444 
0.361290 -0.092879 0.684657 3.768433 -4.954555 0.770280 
-0.664160 -0.182561 -0.424615 -4.860542 -3.755104 -1.289797 
-0.888548 0.344305 -0.764815 -3.983481 3.480607 -3.385712 
0.638520 0.322389 0.590510 -0.234082 0.735253 6.230323 
-0.805309 0.177460 -0.315094 -6.246089 0.391353 0.557317 
0.678034 0.351758 0.586436 0.132828 1.253164 6.146898 
-0.035285 0.462542 0.143206 1.788202 4.068631 4.417440 
-0.762395 0.386940 -0.392258 -5.574258 2.886266 -0.257342 
-0.835373 0.266028 -0.486500 -0.815209 2.402441 5.552999 
-0.827870 0.217190 -0.466511 -3.526151 0.936905 4.745037 
-0.679456 0.418087 -0.085891 -4.624947 3.520181 2.385684 
-0.836339 0.164185 -0.473707 -2.188137 -0.833859 5.392416 
-0.743363 0.405860 -0.534591 -5.547060 2.862159 -0.641301 
0.822685 0.168034 0.570020 1.776930 -0.949110 5.948715 
0.794298 0.043016 0.548472 3.646915 -2.016247 4.658026 
0.470350 0.327835 0.449851 -6.050330 1.526932 0.682462 
0.135599 -0.437537 -0.313933 3.828981 -4.554885 1.812600 
-0.755325 0.032690 -0.115937 -5.673079 -1.599749 2.084317 
0.325943 -0.220606 -0.005782 0.658773 -5.454459 3.043100 
-0.199549 -0.404009 -0.204421 -1.301848 -4.880537 3.658355 
-0.848824 0.227776 -0.474343 -0.354883 1.211662 6.090611 
0.976031 0.323527 0.259860 5.705995 0.924655 2.423782 
0.072731 -0.028251 0.627432 -3.662805 4.267438 -1.564784 
-0.886333 0.181077 -0.470357 -0.089652 -0.540498 6.219130 
-0.584004 0.581075 -0.465035 -3.228950 5.026270 -1.934818 
-0.868623 0.113571 -0.486254 0.036360 -2.207939 5.872912 
-0.579875 0.567404 -0.536314 -3.184419 5.387350 0.379026 
0.768973 -0.188627 0.658757 5.197330 1.780651 2.924418 
0.346732 -0.130327 -0.823631 3.597240 -3.975258 2.914235 
0.702371 0.389450 0.575406 0.409554 1.800884 6.003315 
0.434527 0.445433 0.197794 -4.813766 3.976730 0.645279 
-0.836328 0.309736 -0.508008 0.467801 3.322377 5.267580 
-0.882651 0.259888 -0.477427 0.227290 1.820068 5.944013 
0.266017 -0.184114 -0.799392 2.019629 -1.304304 5.804589 
-0.745061 0.417155 -0.447173 -5.430437 3.151599 -0.157272 
0.376424 0.221159 0.289990 -5.386709 0.409965 3.206603 
-0.773659 0.367093 -0.324418 -5.669802 2.618184 0.482874 
0.354129 0.214953 0.255312 -4.868369 0.820751 3.846620 
0.677331 -0.029094 0.609019 -2.273350 2.494693 5.227202 
0.717915 -0.046067 0.622040 1.607721 2.765445 5.240503 
0.483974 0.336313 -0.816548 3.847839 -2.621484 4.186345 
0.695495 0.106660 -0.942987 3.881219 0.812872 -3.646702 
0.303917 0.495713 0.002294 -1.195782 5.221531 3.268309 
-0.920624 0.156866 -0.478391 -1.682873 -0.982456 5.917414 
0.821218 0.409932 -0.056457 4.773992 3.930744 0.880368 
-0.794072 0.199158 -0.887460 -2.796809 0.400784 -5.605906 
-0.651558 0.507971 -0.662803 -4.083505 4.231133 -2.066775 
-0.673489 0.451653 -0.702467 -4.528176 3.665519 -2.321257 
0.686317 -0.125046 0.667349 -1.279494 2.860809 5.300424 
0.303498 -0.331679 -0.916190 3.706733 -4.566702 1.582510 
-0.739308 -0.099887 -0.242695 -4.809269 -3.388613 2.010514 
-0.929427 0.238256 -0.480708 -2.449273 1.133801 5.573243 
-0.570379 0.501220 -0.037249 -2.994720 5.091658 2.003242 
