-0.351656 0.247767 0.145369 0.06729097000014457 -0.9736975659033268 -0.21768090295286846
-0.640261 0.023605 0.151971 0.9327890130679077 -0.17920200251053048 -0.3127160043809949
-0.643684 0.040309 0.130641 0.9367329169928214 -0.19417298279365316 -0.29125297419105567
-0.129178 0.195932 0.28123 -0.10380597406257544 -0.9034217742669983 -0.4159968960571566
-0.510113 0.166066 -0.184949 -0.1182299782828102 0.6541058798499184 0.7471058627671252
-0.372058 -0.260698 0.191584 -0.17939000530223045 0.914181027020449 0.36344501074234437
0.108031 0.01456 -0.139173 0.371972168618742 0.10431004728479826 -0.9223644181171091
0.874182 0.153796 -0.622175 0.027948994239125953 -0.004370999099045388 -0.9995997939615122
-0.790205 -0.048557 -0.558793 -0.7852822068276549 0.01854600488464741 0.6188601629954111
-0.570226 -0.039785 -0.633837 0.003324000653875867 -0.01632600321154555 -0.9998611966862149
0.695145 -0.313117 -0.555784 0.21255396051884942 -0.9725038193608361 0.09516898232269626
-0.38475 0.247163 0.146918 0.015438005239474613 -0.9750263309122925 0.22155207519212847
0.938614 0.017204 -0.438985 0.9377294539652536 0.014076006814351385 0.347081168025852
-0.199555 0.179968 -0.300106 0.5898759077434153 0.7460198833224995 -0.30903195166740655
-0.18439 0.175362 -0.283173 0.5950081534796954 0.726614187426884 -0.34350708860611917
0.941319 0.026015 -0.447516 0.9454950224531433 0.04982600118324298 0.32180200764199324
-0.348726 0.251312 0.138145 0.16620103278797677 -0.8178041613356031 -0.5509751086958292
0.325396 0.171722 -0.44107 0.01148000226366151 0.08900301754988374 0.9959651963874246
-0.485888 -0.028895 -0.633122 0.008762002162094397 -0.020656005097035135 -0.9997482466959082
-0.538731 0.241583 0.186198 0.3662430631487331 -0.7966481373604737 0.4808510829097934
0.352909 0.151406 -0.43992 0.015689993459462846 0.07950996685544237 0.9967105845108141
-0.754001 -0.040568 -0.534803 -0.3022150751678495 0.03504800871724696 0.9525952369323746
-0.301751 0.022965 -0.022996 -0.6001048343260806 0.04564898739745754 0.7986177795216269
-0.177125 -0.151935 -0.263939 0.5244348784963192 -0.7970478153359982 -0.29947093061708546
-0.329076 -0.252158 0.159136 0.005954001277639501 0.9064751945160004 -0.4222170906014641
-0.135472 0.098658 0.205353 -0.24522205821952447 0.8735822074019812 0.4203810998050009
-0.405017 0.246584 0.148044 0.10945906749872099 -0.9349375765359789 0.3375062081256299
-0.64939 0.045521 0.109448 0.9231579246740089 -0.17494198572543426 -0.3423079720690398
0.372967 0.156935 -0.440654 0.011004998807223268 0.0874639905202159 0.9961068920369603
-0.411746 0.247013 0.151233 0.12482501358464455 -0.9057960985773419 0.40491004406616
0.923638 0.167551 -0.594582 0.8499749439139801 0.5245149653896187 0.0492609967494886
-0.426777 0.239962 0.138952 0.2087780205753881 -0.9674430953429729 0.14305801409858257
0.461752 -0.311314 -0.470586 -0.007978999409115221 -0.8968499335837806 0.4422629672482172
0.4414 -0.312712 -0.473647 -0.002802999516631184 -0.9270978401247725 0.3748089353653291
-0.421296 -0.137973 0.599314 0.23217996621259332 -0.9435178626969318 -0.2363609656041639
-0.466329 0.242224 0.156087 0.14665093439799226 -0.8391716246096649 0.5237217657212382
-0.416786 0.171782 -0.169656 -0.19056298477420866 0.7243499421251662 0.662572947061086
-0.382154 -0.264508 0.196065 -0.16797110462209489 0.8927305560440955 0.41811226042443833
-0.404753 -0.263382 0.186194 -0.09359100723070111 0.91348107057418 0.39597103059212907
-0.366034 -0.029695 -0.631715 0.007872003675277999 -0.016281007601270464 -0.9998364668032587
-0.515686 0.239877 0.166886 0.2145740964436752 -0.8746033931041397 0.4347721954151461
0.488946 -0.306856 -0.461037 -0.058481007672562514 -0.8036881054418772 0.592170077691239
0.482101 0.019243 -0.321985 -0.9537082069661479 0.27709406013274274 -0.11687402536306875
-0.71741 -0.026766 -0.506351 -0.8502500472955854 0.036957002055751774 -0.52508002920784
-0.384817 -0.254859 0.158179 -0.09244599197582692 0.9954589135956633 -0.02269999802967431
-0.145737 0.167448 -0.237667 0.5798368041720391 0.7080827608596035 -0.4029988638954181
0.719995 -0.3071 -0.556408 0.25324810872551434 -0.961898412966163 0.10303804423671481
-0.548748 -0.131216 0.646895 -0.23643813481067907 -0.9661375508657029 0.10332105891089492
0.964341 0.006795 -0.536946 0.9823607964897377 0.021441995557980167 0.1857619615167201
-0.447706 0.240043 0.148565 0.07957100285126781 -0.8953770320840457 0.4381420156999431
-0.356206 0.023762 -0.062599 -0.5649140718954887 0.0016420002089740959 0.8251481050149556
0.934965 0.14486 -0.583192 0.872205136777912 0.46318707263630765 0.15721302465391263
-0.940707 -0.007734 0.152166 -0.9424778394112147 -0.11320998071015304 0.31451394640997327
0.485226 0.032908 -0.379643 -0.8828772012311332 0.34814707935195427 0.3151530718317448
-0.414062 -0.257676 0.16827 -0.03139300575203109 0.9684871774525321 0.2470770452710664
-0.37986 0.037774 -0.07875 -0.522134694301974 0.0754789558087826 0.8495165026273473
-0.53698 0.233772 0.168533 0.34356079490491703 -0.8727554789921899 0.3467907929767089
-0.360603 -0.254093 0.149487 0.005594000541734227 0.9202180891157645 -0.3913660379006717
-0.229626 -0.043844 -0.629835 0.020474001598139203 -0.0016170001262181836 -0.9997890780405391
-0.395909 0.036202 -0.088261 -0.5056089149237232 0.05613199055495141 0.8609348551348089
-0.948239 0.014885 0.133348 -0.9578988991782725 -0.01160799877822337 0.28687096980597143
-0.861206 -0.036647 -0.400124 -0.69198090650958 -0.04127499442352162 -0.7207349026247573
0.927527 0.147479 -0.552831 0.8722977664907169 0.46378387584762387 0.15492295852798163
0.508833 -0.300259 -0.453202 0.014474997451235436 -0.6207058907058061 0.7839098619687718
-0.56854 -0.25528 0.215543 0.3062560971971255 0.5615741782279484 0.7686622439519124
0.032393 -0.1095 0.440815 0.6332951392419843 -0.7559691662142028 0.1656740364265887
0.022926 -0.119384 0.423802 0.6932060108552596 -0.7195380112676056 -0.041599000651419554
-0.597312 -0.114097 0.656576 -0.41889609774501735 -0.8899312076561272 0.18041204209726058
-0.546644 -0.133593 0.626641 -0.22294999891757777 -0.9721489952802167 0.07224699964924082
-0.868802 0.157606 0.033274 -0.17232202162219318 0.9759131224531947 -0.13378601678686838
-0.421966 0.258308 0.11229 0.1471009705926066 -0.4285149143343064 -0.8914798217816121
-0.161273 -0.052631 -0.62878 0.013428993035094856 -0.020361989439318006 -0.9997024815074416
-0.120855 -0.064897 -0.628148 0.0011869995571904912 -0.009660996395970796 -0.999952626968242
-0.010967 -0.139685 0.37546 0.7707010260878447 -0.30431201030080957 -0.559834018950102
-0.900229 -0.035608 -0.353557 -0.8129181601851327 -0.041336008145240535 -0.5809091144678619
-0.592287 -0.250675 0.222298 0.3542300119402083 0.42627401436863155 0.8323530280565402
0.971078 0.009433 -0.602632 0.9647106931125538 0.030334990350031583 -0.26155891679459076
-0.464279 0.256104 0.107497 0.09085201387360327 -0.4021180614056443 -0.9110691391252791
-0.123252 0.189819 0.294191 -0.19122605180878563 -0.929564251846412 -0.315187085393491
0.537368 -0.306162 -0.459646 0.029513009742983952 -0.7868092597454498 0.6164902035188621
-0.860527 0.158654 0.034045 -0.06596696086808057 0.9832744167168725 -0.16976389929523597
-0.848969 0.155692 0.018336 0.045263016232701056 0.9833133526462225 -0.17619906319036946
-0.653506 -0.267981 0.240381 0.06196301344941432 -0.29115806319746584 0.9546662072155735
-0.529861 0.257444 0.103589 0.0060279993984719985 -0.33711296635983584 -0.9414449060541589
0.424191 0.095451 0.045998 0.40371072624748267 0.6701685455648948 0.6228095776785738
-0.914095 -0.118052 -0.262265 -0.74070507865918 -0.6668210708130674 -0.08188800869609755
-0.602699 0.248907 0.106099 0.0025449999423163045 -0.2279949948323795 -0.9736589779315328
-0.532061 -0.137538 0.601624 -0.16418603916715896 -0.9863092352875482 -0.015396003672771
-0.537034 -0.135221 0.632066 -0.18780507421851414 -0.9790213868985593 0.07903403123338593
-0.935944 -0.035752 -0.294554 -0.9033066872328236 -0.06936197598362806 -0.42335085341606243
0.012069 -0.127794 0.407638 0.7580687486828158 -0.6128767968172794 -0.22296592608167953
-0.719193 0.022826 -0.064663 0.9704089810644096 -0.0676639986796724 0.2317929954770233
0.413628 -0.106942 -0.100567 -0.3032478938649236 -0.8648976972906158 -0.39999086000542344
-0.866876 0.160044 0.048498 -0.20876699537434973 0.9682999785453776 -0.13715499696105676
-0.461402 -0.135744 0.572814 0.10398701191701623 -0.9389981076101283 -0.32782503756907927
0.48539 -0.115626 -0.0463 0.23573103485118593 -0.8845531307749981 0.40248805950504657
-0.720219 0.002719 -0.071879 0.9400486918619598 -0.21047693100788334 0.26834291204002547
0.393341 -0.135961 -0.431141 -0.01468500141418039 -0.10025800965494705 0.9948530958053525
-0.809013 0.159699 0.046731 0.18494204819368473 0.9066082362512577 -0.3792860988374188
-0.613253 0.1775 0.207666 0.8327068807085026 -0.22962896710393063 0.503854927819008
-0.875862 0.160379 0.073056 -0.40754976886432737 0.9067524857490747 -0.10818093864682074
-0.857834 0.162447 0.053337 -0.1536519665474353 0.9675477893489047 -0.2006049563249958
0.572009 -0.30154 -0.454872 0.018785997872739473 -0.6925909215734326 0.7210859183467591
-0.399402 -0.148772 -0.152314 -0.24702511163326693 -0.6737753044862036 0.6964233147210795
0.221285 -0.025718 -0.626241 -0.002567999651495507 -0.013253998201293398 -0.9999088643018773
-0.183237 -0.161913 -0.246851 0.5007131676340398 -0.8190952742253623 -0.2799450937229736
-0.167115 -0.157251 -0.231595 0.5040848775172193 -0.8147998020195608 -0.2863559304211013
-0.40892 0.219942 -0.270397 0.013522996965209932 0.993383777067818 0.1140429744068207
-0.397925 0.219648 -0.269467 0.015619007714557815 0.9936714907953376 0.11123405494084922
0.58082 -0.304541 -0.458302 0.0023179997295021968 -0.7629639109663131 0.6464369245643707
0.603561 -0.313019 -0.47348 0.04908599912887078 -0.9342429834199899 0.3532429937309966
-0.390909 -0.255716 0.152162 -0.034525009176731396 0.9904302632559038 -0.13362603551773813
0.608113 0.047217 -0.624672 0.008809997792492344 -0.00841899789046459 -0.9999257494501362
-0.689754 0.031103 -0.112694 0.6136389859200537 0.003262999925130468 0.7895799818830875
0.475653 -0.158762 -0.433797 -0.06089101474698353 -0.13051103160801378 0.9895752396617928
0.826991 0.252732 -0.483332 0.5854360603043081 0.7886920812412037 0.1876950193339957
0.245354 0.023764 -0.433617 0.00868299720520848 0.021240993163173252 0.999736678215307
0.239854 0.013187 -0.433343 -0.0008400002438815062 0.021463006231462817 0.999769290268059
0.755126 0.260679 -0.457195 0.0166249967743935 0.5562228920808105 0.8308668387939852
-0.347648 -0.139835 -0.122285 -0.28802810744256896 -0.6933462586376165 0.6605382463993069
-0.345345 -0.148999 -0.131699 -0.2419990103713518 -0.748378032073238 0.6175490264662993
-0.694104 -0.211473 -0.517854 -0.24919898421137587 -0.09506699397679312 0.9637749389376313
-0.801686 0.168262 0.067606 0.1809419892905868 0.8662989487263657 -0.4656029724423577
-0.387253 0.205816 -0.634739 0.021585998229246676 0.0020379998328177856 -0.9997649179867878
-0.148364 -0.04363 -0.441845 0.3346290825760943 -0.4662701150610243 0.8189112020819234
-0.829466 -0.016256 -0.428152 -0.6201242592504422 -0.014460006045180312 -0.7843703279154965
-0.103418 0.174943 -0.166027 0.4702789143843206 0.8116208522420025 -0.34656793690627313
-0.976564 -0.016546 -0.127844 -0.992198464697748 -0.09596304494444657 -0.07958203727237526
0.451986 -0.04315 -0.624325 0.013334995940334458 -0.00931499716417064 -0.9998676956033247
-0.494209 -0.136745 0.571503 -0.016518005053733978 -0.9515812911391954 -0.30695309391323433
0.631309 -0.313491 -0.481741 0.08858503123433455 -0.9633243396600337 0.25329608931006387
-0.848294 -0.040521 0.349929 -0.8263463406605228 -0.4032851662539408 0.3930811620473494
0.841273 0.246383 -0.525413 0.6439879679261801 0.7600349621464596 0.08732899565057949
0.66758 0.24355 -0.451566 -0.03517798700959848 0.36906486371304403 0.928737657039072
0.666851 -0.31099 -0.488353 0.14029802928763757 -0.9707232026414019 0.1949690407003764
-0.440353 -0.259432 0.173773 0.047228000784622394 0.9248330153647134 0.37743000627043344
-0.149449 0.084021 -0.630681 0.003735001079096125 -0.011639003362677322 -0.9999252888929565
0.632063 0.240508 -0.451395 -0.023690997175488414 0.29513796481276855 0.9551608861228605
0.612235 0.246252 -0.453305 -0.007564000902184917 0.25822903079988213 0.9660541152246624
-0.142443 0.198208 0.287701 -0.43059588072129745 -0.890523753317385 -0.14681495933101396
0.602876 0.253804 -0.455284 0.005929999728287419 0.2558739882758541 0.9666919557061756
0.857595 0.232203 -0.52703 0.6768020246731566 0.7298210266059909 0.09643800351569569
0.506666 -0.051251 -0.623514 0.0006849997737052246 -0.017382994257398424 -0.9998486696925477
0.589947 -0.300825 -0.45447 0.011506998369723107 -0.6658119056697733 0.7460308943045885
-0.001798 0.183654 0.399512 0.8482620610981978 0.5177700372936827 -0.1112010080095309
-0.670958 0.207119 -0.532743 -0.3476979463112689 0.35638194497035536 0.8672358660883858
-0.689045 0.200784 -0.537179 -0.3508719071928139 0.32376391436299906 0.8786727675871298
0.613574 0.037869 -0.624479 0.013195997566018268 -0.020883996147978593 -0.9996948156078078
-0.955301 -0.075841 -0.127122 -0.7889387769532328 -0.6144668262794996 0.0024749993002744844
-0.429734 -0.260185 0.174923 0.003588002223779884 0.9329545782286336 0.3599762231068527
-0.151291 -0.166474 -0.178512 0.3982200598777665 -0.8803921323788523 -0.2575470387256771
-0.872243 0.167446 0.129377 -0.6604258735717152 0.7508868562543639 -0.0025679995083963455
-0.732747 0.150825 0.087178 0.328046902075718 0.5063218488594065 -0.7975107619374906
-0.978387 -0.015945 -0.096202 -0.9940508054314726 -0.10320797979879445 -0.034800993188297866
0.501237 0.011532 -0.624839 0.013632993388122508 -0.021236989700253627 -0.9996815151635798
0.480432 0.009181 -0.625175 0.018786999748526614 -0.03699099950485698 -0.9991389866260251
-0.440187 -0.25198 0.145042 0.20798203337186383 0.9774111568310085 0.03756200602703094
-0.529261 -0.125147 0.547724 -0.11104802871430325 -0.9223842385059965 -0.3699670956644391
0.629026 -0.305042 -0.461995 0.0626789860669017 -0.8175678182604171 0.572410872757084
0.649263 -0.305624 -0.464908 0.05312801248752829 -0.8782182064217009 0.4753001117174032
0.565592 -0.056977 -0.623337 0.009664004749216845 -0.019939009798699777 -0.9997544913129695
-0.728104 0.168808 0.097141 0.1362410302638365 0.34002507553130856 -0.9304952066951104
-0.72268 -0.275091 0.208769 -0.512410845359298 -0.7415917761946809 0.43298586932899774
-0.124123 -0.031046 -0.377036 0.81508772741637 -0.2031009320784899 -0.5425698185524751
0.84219 0.251799 -0.575669 0.5650671640206568 0.8216402384954926 0.07487602173407878
-0.97654 0.047551 -0.117622 -0.9862238632181564 0.15608497835218565 -0.054771992403535974
0.41698 0.248823 -0.451444 0.028226006695378936 0.17124404062011872 0.9848242336062448
-0.7452 -0.259953 0.205386 -0.5799298362623433 -0.7328947930741471 0.3557338995619272
-0.546547 -0.024784 0.7929 -0.41756483411864453 -0.2431619034017646 0.8755066521971719
-0.567908 -0.019375 0.782769 -0.5019729394746165 -0.20188897565723826 0.8409898985976492
0.669928 -0.305601 -0.470105 0.13748991875413746 -0.922848454668245 0.359787787393364
0.651551 0.164777 -0.366558 -0.24579394807185548 0.9336128027584448 0.2606769449275697
0.646739 0.157968 -0.342666 -0.2672240037388647 0.9463960132414999 0.18145500253882768
0.897822 0.151588 -0.429931 0.7958752129686746 0.45943712294102584 0.3943351055203421
-0.11967 0.032276 -0.442695 0.17644104105342398 0.04758701107230909 0.9831602287568328
-0.698571 0.166375 0.100353 0.12891601338754194 0.12895501339159196 -0.9832351021060209
0.598615 -0.040176 -0.622874 0.012933002376943795 -0.015373002825389077 -0.9997981837519253
-0.463832 -0.252388 0.116405 0.2721940440163663 0.7977371290016827 -0.538076087012022
-0.378347 -0.280101 -0.627319 0.02059700995279687 -0.011078005353065188 -0.9997264830834491
-0.361587 -0.293958 -0.626665 0.02796999777603564 -0.05204599586169292 -0.9982529206264178
0.642857 -0.042909 -0.623011 0.005200999874039586 -0.007809999810853522 -0.9999559757825665
0.855504 0.232425 -0.621152 0.37501396714109014 0.32044597192236496 -0.8698729237813028
0.865941 0.228761 -0.61703 0.5261007684923014 0.4905317841442339 -0.694691694304808
-0.355849 -0.107434 0.604572 0.609440972262209 -0.7241149670429942 -0.32286098530546686
-0.184659 0.161025 -0.055577 -0.2775101947255031 0.8280505810329459 0.4871553418309339
0.338632 0.255788 -0.450827 0.008794000033817327 0.16374800062969294 0.9864630037934435
0.389271 0.049159 -0.626138 0.013300004235194172 -0.011245003580808908 -0.9998483183872499
0.372472 0.038455 -0.626262 0.01208699851737259 -0.012333998487074834 -0.9998508773552992
0.839132 0.228977 -0.624312 0.058088001993086516 0.005368000184184142 -0.9982970342530694
-0.129325 -0.15768 -0.173471 0.41812592087281286 -0.8542278383438036 -0.30897494152881516
0.325349 0.040003 -0.626465 0.004099998802495075 -0.013181996149875627 -0.9999047079533752
0.331215 0.02983 -0.626291 0.0065110018288299844 -0.014867004175889322 -0.9998682808460418
0.307407 0.029443 -0.6264 0.0031200013197842376 -0.015212006434794173 -0.9998794229565845
0.296551 0.006788 -0.626021 -0.002175000671546786 -0.014375004438383932 -0.9998943087244148
-0.375551 0.219078 -0.267601 0.019032006251767666 0.9936993264173642 0.11045103628173551
-0.260071 -0.150107 -0.096072 -0.22771601606069733 -0.8346220588654786 0.501549035374004
-0.019422 0.166527 -0.083064 0.35551004425584837 0.8602251070855593 -0.36554804550543407
0.886883 0.148555 -0.407216 0.751026696458728 0.4614818134836254 0.4722218091428583
0.657736 0.156422 -0.315261 -0.21956810280082176 0.9663474524396346 0.13402406274947776
-0.124935 -0.13244 0.4093 -0.9729787881562706 0.18229796030881631 0.141702969147441
0.254597 0.262844 -0.454395 -0.033589006726434396 0.21819404369488898 0.9753271953161178
-0.511272 -0.241537 0.105949 0.2793870051722917 0.7368330136409897 -0.6156460113974548
-0.966342 0.045683 -0.207189 -0.9712685124598565 0.12398706541794872 -0.20313710717902564
0.70347 0.228947 -0.627455 0.00849399648882041 -0.025387989505318176 -0.9996415867762435
0.728011 -0.106433 -0.211531 0.537960370019491 -0.5757693960252663 0.6157014234912831
-0.759662 -0.102939 0.036802 0.5165679248256835 -0.7323228934276202 -0.4436899354313613
-0.343746 -0.210112 -0.303601 0.11377004480834096 -0.990630390159856 0.07555002975538508
-0.162955 0.155559 -0.033802 -0.29580213385803883 0.8196123708955818 0.4906492220313347
-0.511882 -0.247752 0.100047 0.24427703548783747 0.583294084739221 -0.7746591125401602
0.698926 0.216405 -0.627219 0.013064994996623941 -0.020735992058935632 -0.9996996171546081
0.670009 0.158596 -0.313068 -0.17058598698591027 0.9741529256813891 0.14807598870320923
0.201234 -0.008851 0.214611 0.924645220974053 -0.17419904163052743 0.33865308093216956
0.209092 -0.012644 0.201734 0.6604339598885446 -0.2060249874870728 0.7220669561452647
-0.370206 0.205724 -0.63433 0.020583007193257986 -0.00660200230723846 -0.999766349393906
0.181955 0.009312 -0.62689 -0.004843997791638865 -0.01671599237923932 -0.9998485441726522
0.163058 0.01897 -0.62695 -0.0022330002618449756 -0.015452001811925017 -0.9998781172472148
-0.435061 -0.018211 0.430477 0.4754909397015713 -0.2526879679558828 -0.8426488931411728
-0.042288 -0.149643 0.017476 -0.1402060293405683 -0.9524551993179393 0.2705020566072951
-0.766315 -0.003285 0.5343 -0.8680069664389451 -0.08510799670934192 0.489203981085173
-0.770663 -0.024726 0.518627 -0.8449765816023443 -0.2712418656921822 0.460914771773959
0.692593 0.162535 -0.318342 -0.09383200467264628 0.9778840486966711 0.18691800930814326
0.11642 0.24576 -0.455085 -0.017371001434097824 0.13015801074545533 0.9913410818421491
-0.261887 -0.138864 -0.079889 -0.28688507830658383 -0.7768552120461549 0.5605291529989757
0.105488 0.034569 -0.62768 0.004664000663062365 -0.015164002155805684 -0.9998741421481174
0.079778 0.030795 -0.62761 0.0018539996498851772 -0.01819099656475796 -0.9998328111885902
-0.668788 -0.267864 -0.530924 -0.3948681544335577 -0.6537382556780624 0.645527252466726
-0.760038 -0.254283 0.157091 -0.6591911770159264 -0.7440071997920003 -0.10918002931866311
-0.538171 -0.015719 -0.1477 -0.10272399531116334 -0.08366699618102005 0.9911849547573638
0.605857 -0.153154 -0.38473 -0.43981401240363494 -0.7622020214956218 0.47498601339555574
0.932176 -0.134005 -0.536231 0.8831907336270653 -0.4067428773251465 0.23352592956788973
0.076941 0.221523 -0.453388 -0.04521601815014288 0.09207003695779492 0.9947253992923053
0.036194 0.240778 -0.458234 -0.06384300961890776 0.1201140180969799 0.9907051492646025
0.848198 -0.022602 -0.620515 0.021779998556149493 -0.019067998735934736 -0.9995809337352831
0.097694 -0.130237 0.256305 0.15064701049866586 -0.9688510675197176 -0.19655301369787828
0.542405 0.241356 -0.628368 0.01178399489373687 -0.006781997061212106 -0.9999075667181473
-0.611871 -0.260927 0.075555 0.0035070004146642462 -0.13204801561322624 -0.9912371172028924
0.087725 -0.132615 0.264424 0.062467984091093116 -0.994220746798852 -0.08730897776476353
-0.058024 0.040681 -0.629097 0.016888997814715825 -0.017404997747950082 -0.999705870647066
0.228716 0.000954 0.192057 0.405040185619226 -0.07445303411986035 0.9112624176075131
0.223444 -0.020862 0.191369 0.399978094200052 -0.18473904350845147 0.8977132114231564
0.238687 -0.002205 0.187775 0.36374099414176947 -0.08481299863404426 0.9276309850600393
0.014212 0.163634 -0.056736 0.3088670065191016 0.8888670187608719 -0.3384030071425032
-0.099646 -0.14126 0.337472 -0.07978901350724386 0.6316081069230506 -0.7711711305492582
-0.679154 0.193019 0.278296 0.4860547255828145 0.0759309571308364 0.8706235084626478
-0.653825 0.193635 0.260347 0.650967753985662 -0.06104697692906979 0.7566467140473712
-0.742088 -0.049504 -0.034614 0.9165741049550737 -0.3977920455503742 -0.04066200465612509
-0.12412 -0.15893 -0.162943 0.40899590794811935 -0.8619018060135061 -0.29974593253679005
-0.104097 0.098563 0.22781 -0.35912897252896897 0.8240109369685218 0.4382149664794048
0.486398 0.22841 -0.628537 0.005882002471170926 -0.007782003269407029 -0.9999524201040988
0.81201 0.148358 -0.323133 0.4548906767989243 0.7008695020302932 0.5494146096394104
-0.316751 -0.204883 -0.279113 0.13802294704219265 -0.9867876213810104 0.08485196744328213
0.22049 0.004343 0.196338 0.4916118646334626 -0.057999984029561594 0.8688807607515432
-0.691688 -0.251852 0.085596 -0.3487038645690246 -0.430375832848945 -0.8325756766409912
0.385042 -0.043884 -0.429529 -0.024336995402620316 -2.4999995277376335e-05 0.9997038111509693
0.398591 -0.043231 -0.429118 -0.04028600668963297 -0.011311001878231607 0.9991241659080785
0.057169 -0.129231 0.279494 -0.1900980804976195 -0.9463974007549034 0.2611411105810101
-0.117802 0.037621 -0.629654 0.0005859998962522436 -0.011313997996924716 -0.9999358229673778
-0.737529 -0.046216 -0.010362 0.8982358979298678 -0.39056395561865803 -0.201573977094344
0.806919 0.145559 -0.315395 0.46105303953207244 0.6956130596439531 0.5509560472406264
-0.134248 0.025562 -0.629618 0.011703003736248906 -0.01569600501103673 -0.9998083191943559
0.451219 -0.047431 -0.422663 -0.33332105731022754 -0.12818902204043778 0.9340581605991718
-0.192853 0.016623 -0.629929 0.01130199619323968 -0.02273399234269252 -0.9996776632866268
-0.240543 -0.144013 -0.07634 -0.2724259111890312 -0.8197487327615468 0.5037818357668964
-0.868324 0.107291 0.258914 -0.7319091520610953 0.5219901084484152 0.43799009099661174
0.0235 0.163017 -0.050299 0.28603490926087405 0.8926007168394269 -0.3484938894469525
-0.275505 0.041367 -0.631673 0.008840998295270032 -0.007759998503709473 -0.9999308071923604
-0.041264 -0.035439 -0.254969 0.7379851515681439 -0.2889020593349999 -0.6098471252510252
0.735431 0.153733 -0.280835 0.13601993666226322 0.9381505631498228 0.31838985174164086
-0.178032 0.241051 -0.479988 -0.13707505445821652 0.011458004552122888 0.9904943935111196
-0.179843 0.216011 -0.481229 -0.12948900101092062 -0.023089000180255823 0.9913120077391728
-0.002812 -0.144776 0.397139 0.819945290231986 -0.518986183702977 -0.2415430854978134
-0.286386 0.039542 -0.63176 0.010894996921586369 -0.009583997292013195 -0.9998947174767877
-0.321623 -0.019878 0.72213 0.8916618488504003 -0.17522297029716832 0.4174159292419535
-0.332494 -0.036239 0.734574 0.8274829977910342 -0.2949949992125109 0.47775499872463306
-0.842523 -0.164209 0.134522 -0.629855176211458 -0.7339382053302507 -0.25419907111601303
0.22374 0.224251 -0.628533 0.0054469999919656755 0.007894999988354875 -0.9999539985250679
-0.012606 -0.042182 -0.221365 0.6591699236654907 -0.30161196507213 -0.688857920227502
0.488193 -0.043512 -0.38725 -0.7897949477700721 -0.4155309725205222 0.4511739701634152
-0.323272 0.051905 -0.632492 0.013044006101439633 -0.015902007438292932 -0.9997884676591634
-0.324849 0.040575 -0.632352 0.013448999476289246 -0.013533999472979303 -0.9998179610665894
-0.310338 0.219646 -0.633473 0.024259005331086818 -0.005382001182732563 -0.9996912196891675
0.881138 -0.130726 -0.397278 0.7647622633031039 -0.4280321473689255 0.48158816580794445
-0.62974 0.217188 -0.520827 -0.29942918374986527 0.7101354357868161 0.6372203910412457
-0.413249 -0.032682 -0.10493 -0.4746859108043897 -0.1790929663476289 0.8617418380748462
-0.430227 -0.021439 -0.111763 -0.4523959938426643 -0.16313799777961027 0.8767689880667356
-0.825379 0.189401 0.236007 -0.7326843899017653 0.4968032643764115 0.46514524752943504
-0.722721 -0.047688 0.026231 0.7768551000705961 -0.3742840482134028 -0.5063670652276777
-0.715727 0.036965 -0.510261 -0.9991782188690137 0.01785700391155928 0.036387007970538586
-0.743353 0.016609 -0.532849 -0.23433510088678952 -0.04855802090537362 0.9709424180136181
0.063536 0.159825 -0.030197 0.2319500689943701 0.9012972680940669 -0.36587210882995547
-0.272656 0.25223 -0.495716 -0.0991079576479082 0.16452892969137392 0.981380580623782
-0.002722 -0.055198 -0.205432 0.607998056155311 -0.42868503959378074 -0.6682570617208933
0.134848 0.234353 -0.628482 -0.0034820010815027396 -0.001804000560319053 -0.9999923105956599
0.809986 -0.257611 -0.471791 0.5614571596933176 -0.7963372264994423 0.2249730639883103
-0.503213 0.028191 -0.634049 0.009232000023703162 -0.0125200000321451 -0.9998790025671894
-0.526212 0.016531 -0.634278 0.01736200578114956 -0.017199005726874283 -0.9997013328776061
-0.555531 0.035933 -0.635302 0.0018749994844099 -0.02242699383299244 -0.9997467250881837
0.076007 0.162937 -0.011726 0.18842800236128557 0.9565520119870317 -0.2224930027881711
-0.542043 -0.095635 0.476426 -0.38505293395149087 -0.8212128591365492 -0.4211219277645408
0.376824 0.005978 -0.625745 0.006570997994909549 -0.021939993305176615 -0.9997376949375869
0.372414 -0.014996 -0.625234 0.005030998359195494 -0.02456099198970394 -0.9996856739635672
0.089835 0.163442 0.008586 0.13292999471629868 0.9902399606399429 -0.041885998335115374
-0.579929 0.036316 -0.635121 0.0013839996941347173 -0.020210995533350266 -0.9997947790443783
-0.093616 -0.309695 -0.528419 0.000492000031133763 -0.9779240618830366 0.20896001322299007
-0.062843 -0.114973 -0.185075 0.46479107318345175 -0.7732591217531379 -0.43132306791376335
-0.619249 0.215739 -0.510454 -0.24826303635787608 0.9419071379413686 0.22622203312999295
-0.901033 -0.13292 -0.239381 -0.6823127327920574 -0.7308667137773026 -0.01682799340980568
-0.884805 -0.146647 -0.242794 -0.5852421473285842 -0.8054412027613911 0.09357402355628087
-0.329619 0.256995 -0.502235 -0.09946803709934673 0.23221408661064566 0.9675653608801768
-0.351598 0.257683 -0.505509 -0.14948503316811657 0.2553110566490618 0.9552332119495566
-0.333249 0.248306 -0.500127 -0.07641695801003937 0.3461158098146065 0.9350744861907372
0.187264 -0.134927 0.085477 0.14875495046267592 -0.9241796922361994 0.35180088284575206
0.020538 0.258397 -0.629209 0.016515005467103543 0.017103005661754277 -0.9997173309449805
-0.605777 0.221568 -0.516227 -0.14974500560330845 0.7937960297030541 0.5894610220570424
-0.787535 0.199802 0.272729 -0.5749297949921452 0.45384683816777716 0.6807927572436427
-0.804212 0.198212 0.256772 -0.6784348965675197 0.46642092889063663 0.5676069134640755
0.224737 -0.135531 0.065395 0.16786798251050727 -0.9435679016934397 0.285481970256777
0.006204 -0.052795 -0.198742 0.6210480836225775 -0.3927350528807966 -0.6782760913281861
-0.624753 0.178515 0.225561 0.8057303477254953 -0.15118006524411454 0.572663247141754
-0.665182 0.040633 -0.635725 0.0006110001654115147 -0.013003003520206098 -0.9999152706995985
0.509823 -0.063283 -0.332892 -0.8063627450228991 -0.570239819686491 -0.15686195039923953
-0.806313 0.027063 -0.595118 -0.9140461783962383 0.10256602001801722 0.39242807659098006
-0.20008 -0.157867 -0.082597 -0.18590808735283942 -0.9018374237473517 0.3900351832662647
0.946128 -0.036669 -0.475554 0.9389413118290341 -0.16817705585278675 0.3001760996906005
-0.407405 0.253394 -0.51224 -0.10591195345250104 0.23222089794067946 0.9668795750637718
0.046006 -0.319319 -0.594972 -0.011325003787891638 -0.9884343306031685 -0.15122605058081243
0.117309 0.15978 0.029633 0.091200000277932 0.9922730030239519 0.0841240002563679
0.035292 -0.038588 -0.17975 0.5994578322150732 -0.2350199342192222 -0.7651247858458106
0.12775 0.156944 0.004175 0.16003295110882068 0.9620327060923191 -0.2210939324542663
0.53668 0.102932 -0.368981 -0.6420948350760366 0.7347088112878619 0.2188999437749
-0.385195 0.008345 0.793326 0.4505071579151755 0.0021140007410155245 0.8927703129406006
-0.750888 0.18467 0.298771 -0.11085002985230503 0.40014710776103113 0.9097222449914176
-0.69391 -0.144024 0.078044 0.18690200622981779 -0.04096600136547879 -0.9815240327161596
-0.703328 -0.145199 0.076883 0.08769900988188115 -0.11586201305527445 -0.9893861114835386
-0.353886 0.012714 0.772462 0.6535479951137485 0.005084999961981998 0.7568679943412765
0.131246 0.158598 0.027125 0.10504505432191046 0.9939905140219504 0.030796015925532435
-0.175733 0.048112 0.706944 0.04738399902197058 0.35161699274244956 0.934943980702289
-0.175769 0.037162 0.710021 0.06345898406919519 0.20477994859184337 0.9767487547960466
-0.848386 -0.161526 0.157969 -0.7522621316349767 -0.6573761150312982 0.044253007743635366
-0.499956 -0.291053 0.216936 0.16099097661461342 0.3259289526558897 0.9315858646787787
0.14751 -0.13971 0.086793 0.10421998281318826 -0.9400668449745294 0.32467294645851347
0.476037 -0.047613 -0.264728 -0.777222075898071 -0.4648890453978122 -0.4240330414081006
0.4767 -0.029493 -0.283768 -0.8604538001355354 -0.3418579205939351 -0.3778259122393629
-0.539132 0.263626 -0.527652 -0.11668894328329454 0.34211783371349624 0.932383546814621
-0.466378 -0.300332 0.216542 0.0017720004994561309 0.24701406962339548 0.969010273125274
0.128495 -0.135149 0.103406 0.0691679823873093 -0.9151947669580375 0.3970318989011998
0.050164 0.156268 0.056421 -0.03412201189773342 0.9468143301371719 0.3199661115664431
0.040408 0.16326 0.031648 -0.015487998431615663 0.9714079016308697 0.23691097600932973
-0.548094 0.009279 0.796413 -0.4221739507844413 0.021873997450006087 0.9062508943524489
0.931504 -0.03542 -0.434116 0.9121290673817132 -0.1736530128282695 0.37130202742919577
-0.24481 0.231604 -0.632757 0.01316299490038692 0.004415998289152065 -0.9999036126169174
-0.129612 -0.169415 -0.121136 0.19010696349005624 -0.9815368114963643 -0.021090995949485165
-0.108604 -0.163915 -0.121049 0.30613194610700634 -0.9373788349791576 -0.1661449707510112
-0.105263 -0.135206 0.458341 -0.7761481060396899 -0.24088503291043808 0.582725079613654
-0.091404 -0.133333 0.474038 -0.5878820792629703 -0.4008880540509382 0.7026260947336774
0.81947 -0.267581 -0.55319 0.5254279285055521 -0.8360268862426653 0.15806497849225792
0.901934 -0.135741 -0.441076 0.8369293560942673 -0.4177191777299404 0.35363815046493136
-0.439924 -0.33017 0.216858 -0.08559600588814945 -0.296048020365144 0.9513300654419975
0.218375 -0.138947 0.055744 0.14559794214652358 -0.9757866122702908 0.1632229351432164
0.243386 -0.135596 0.051975 0.16462903291675526 -0.972662194478962 0.16378503274800163
-0.586069 0.243472 -0.526742 -0.11755199224721126 0.33615997782957785 0.9344399383718193
0.081554 0.160559 0.040627 0.04752401717325819 0.975521352513972 0.21470807758681762
0.835056 -0.260703 -0.570853 0.5679249758844862 -0.8079539656922554 0.15707199333033062
-0.205217 -0.146087 -0.060984 -0.24805793282145588 -0.8521957692100776 0.4606838752385312
-0.180492 -0.15439 -0.064868 -0.20354497192809712 -0.8981588761304271 0.38971794625205314
0.200296 -0.139613 0.064862 0.13861899297271033 -0.9614949512570148 0.23730198796997606
-0.339927 0.240323 -0.634163 0.011825999019033421 -0.004929999591056551 -0.9999179170568121
-0.603858 0.24951 -0.531495 -0.16554501954846754 0.36681004331494993 0.915448108101154
0.117829 -0.137332 0.099691 0.037019993592931746 -0.9239898400846301 0.3806209341257503
0.900772 -0.01789 -0.367569 0.8504046886375615 -0.11498795789894924 0.5134098120229896
-0.379379 -0.307192 0.230843 -0.2602760630647676 0.030123007298790493 0.9650642338346097
-0.256979 0.038597 0.678065 -0.5688280530986791 0.23172002163048572 0.7891390736641631
0.067382 0.10102 0.391796 0.2540699634497518 0.9554168625546955 -0.15042297836030233
-0.684493 0.207561 0.279809 0.3782621598632682 0.07478903160775856 0.9226723899449626
-0.701377 0.185787 0.289736 0.3418470393277949 0.2024260232881032 0.9176951055762396
0.089854 0.161844 0.031293 0.07441099561027227 0.9853879418690109 0.1532109909616243
-0.648031 -0.07346 0.163828 0.9334201231997965 0.07922901045723969 -0.349928046186131
-0.155926 0.171647 -0.245032 0.580215839003472 0.7137068019628052 -0.3923928911200129
0.46451 -0.264768 -0.439592 0.010507998206720942 -0.19461796678679258 0.980822832614261
-0.641298 -0.077053 0.18058 0.9337869074379105 0.11350898874836529 -0.3393489663618657
-0.089996 -0.159619 -0.110503 0.32916304805747937 -0.9117171331097994 -0.24581203588831405
-0.022557 0.014435 0.546635 0.33808901589474827 0.00041600001955761733 0.9411140442450662
-0.832849 -0.174857 0.182656 -0.7562351780710964 -0.6146471447312876 0.22431505281958386
0.257928 -0.134614 0.032114 0.08903898498633667 -0.9951938321914255 -0.04075899312725992
-0.68052 -0.218917 -0.515431 -0.2472330813429112 -0.12436104091640589 0.9609423161625662
0.054438 0.019182 0.509659 0.5710139362174614 0.02840199682748293 0.8204489083554518
0.850921 -0.252247 -0.591834 0.6171339016442923 -0.7827628752471768 0.08017498722211243
-0.748912 0.222231 0.281089 -0.2844859809109913 0.47750196795961897 0.8312999442197756
-0.721243 0.224177 0.284338 0.01248400480334037 0.33359912835545846 0.9426323626868263
-0.332911 -0.300297 0.24547 -0.33662796998540995 -0.05832099479995453 0.9398299162024188
0.199347 -0.049869 -0.105218 0.09775896247650033 -0.5765567786962182 -0.811187688636211
0.218645 -0.059591 -0.095761 0.03584298715468218 -0.6418587699722998 -0.7659847254883583
0.099863 0.007213 0.470794 0.7021577699124156 -0.04044498674672603 0.7108717670569569
-0.530182 0.207215 -0.636901 0.012567006147447884 0.001042000509719161 -0.999920489134725
-0.559227 0.220931 -0.636985 -0.006333000874492486 0.004429000611578591 -0.9999701380808861
-0.566144 0.239561 -0.636927 -0.0036900009118325484 -0.00915900226327217 -0.9999512470969834
-0.085913 0.148899 0.348533 -0.4069109191960446 -0.7437058523156501 -0.5304008946735311
-0.080437 0.157701 0.335379 -0.0024280007421076145 -0.748770228858286 -0.6628252025895714
-0.193533 -0.29731 0.213742 0.6891282000146651 -0.31101109026880497 -0.6545031899649969
-0.661645 -0.15795 0.085933 0.4554291797786547 0.3721481469038353 -0.8087583192537701
-0.639822 -0.161785 0.097695 0.46345581573324846 0.5629947761572625 -0.6842847279332362
-0.280649 -0.012307 0.542595 -0.7566810732577033 -0.08600100832614502 -0.648103062745777
-0.278229 -0.002898 0.538855 -0.7768908625847217 -0.029879994714871825 -0.6289258887565421
-0.101241 0.159384 0.347595 -0.5799691448629711 -0.7654061911808862 -0.27890706966457984
-0.161988 -0.148793 -0.041802 -0.2353549641547356 -0.885665865110442 0.40025493903997666
0.237255 -0.058525 -0.096946 -0.04520599790262258 -0.6491499698820388 -0.7593159647707773
-0.639715 0.194197 0.247099 0.7084790832229173 -0.12330701448450593 0.6948760816250136
-0.057694 0.157757 0.343355 0.3683949906836591 -0.5670519856598225 -0.7367069813694173
-0.29695 0.001759 0.553918 -0.40710312038794194 -0.023677007001730033 -0.9130752700132891
-0.266613 8e-06 0.520096 -0.9018761517023456 0.0035530005976413983 -0.43198007266229416
-0.013784 0.160484 0.369231 0.6518581520456058 -0.10465902441166797 -0.7510841751900288
-0.271652 -0.301292 0.268981 -0.3340748850216337 -0.4903848312245269 0.8049327229667549
0.35144 -0.03819 -0.141976 -0.3973549606257015 -0.3866209616893441 -0.8322459175319238
-0.673759 0.015092 0.679441 -0.8118044290054701 0.085545045207061 0.5776293052534857
-0.051132 0.236131 0.384943 0.4233688371118348 0.832245679799362 0.3579468622824769
-0.039504 0.23205 0.371292 0.667949991480298 0.7371969905970525 0.10189899870027828
-0.104098 0.150833 0.420105 -0.9916492841933383 0.022449006433583104 0.1269950363950682
0.262067 -0.031934 -0.119267 -0.11456296872265263 -0.49883186381168665 -0.8590937654549772
-0.678927 -0.005343 0.67214 -0.8100621584749057 -0.08123701589264269 0.5806891136019645
-0.093775 0.241349 0.384267 -0.23928403328704348 0.7144310993852316 0.6575190914681447
0.163957 0.01931 0.398526 0.8079478229285587 -0.005961998693356586 0.5892238708645322
0.119276 0.10532 0.356267 0.10532902194272345 0.8959321866455402 0.43152208989706453
0.342306 -0.04188 -0.135902 -0.36298399778579765 -0.45052999725176707 -0.8156379950246083
0.048402 -0.13923 0.088293 -0.10156497094455119 -0.9240067356625009 0.3686408945401496
-0.152653 -0.198523 0.273623 0.14070598917970983 0.7363199433769985 -0.6618419491043561
-0.605421 0.216249 -0.499699 -0.042443006765479484 0.9958681587428909 0.08028201279707428
-0.750033 0.250883 0.257231 -0.4503369771438228 0.6787969655486791 0.5800269705616018
-0.676621 -0.211452 -0.513081 -0.36815514422222895 -0.24120009448846713 0.8979333517591739
-0.257427 -0.301405 0.27477 -0.30502802571249105 -0.5734080483357202 0.7603690640956932
-0.32918 -0.28836 -0.626372 0.017024993669989354 -0.03992498515561381 -0.9990576285434495
-0.32324 -0.278804 -0.626465 0.02283299636075175 -0.02001899680926244 -0.9995388406880148
-0.037672 0.223808 0.341036 0.8580570611391419 0.39313702801219363 -0.33042602354384626
-0.043806 0.219628 0.326178 0.8346801474408356 0.1621870286492869 -0.5263120929696185
0.834185 -0.254859 -0.614355 0.3329049594039072 -0.4169239491582121 -0.8457828968610109
-0.647161 0.216051 -0.474873 -0.10592299248100369 0.9751509307784261 -0.19457898618771388
-0.15493 0.014111 0.448047 -0.448962853608053 0.13557295579414022 -0.88320571201581
-0.07154 0.005439 0.620594 0.957604051616775 -0.05508600296924581 0.2827720152419776
-0.071972 -0.014 0.611004 0.9435479088372362 -0.24120097669588636 0.227022978065722
-0.083066 0.163738 0.461068 -0.6396513099965282 0.4789442321124758 0.6012142913686569
-0.052848 0.226881 0.314891 0.8170319294108954 0.16033698614736602 -0.5538509521489413
-0.03327 0.016911 0.550693 0.39435215597537865 0.003843001519995791 0.918951363466472
0.049886 -0.119513 -0.077512 0.29207282856600514 -0.8315215119331869 -0.47250972265742835
-0.65195 -0.022877 0.140365 0.9443471884020046 -0.15099103012346846 -0.29225005830535367
-0.649161 -0.013132 0.144163 0.9433837031903075 -0.15760995041237116 -0.29186690817211813
-0.069573 0.167234 0.467905 -0.33099316406441526 0.6093413020341061 0.7205183571415842
-0.24208 0.013217 0.469379 -0.7152501078339754 0.009344001408739134 -0.6988061053548116
0.000433 0.162835 0.453012 0.5942337662100612 0.6505847440398439 0.47289081395013083
-0.219316 -0.316633 0.266434 0.008957998898233389 -0.8699888929978977 0.4929899393659386
-0.053641 0.16742 0.471968 -0.07864298535593038 0.6653888760982816 0.7423428617687197
-0.14596 -0.159232 -0.059988 -0.13918905799932701 -0.940943392086018 0.3086291286040872
-0.148819 -0.151224 -0.03987 -0.20788503079879322 -0.9030251337858926 0.3759380556963549
-0.595088 -0.168858 -0.632483 -0.00267899884363317 -0.022618990236707232 -0.9997405684705746
-0.498025 -0.002238 0.81192 -0.16224196756799616 -0.047546990495405096 0.9856048029786051
-0.197896 0.23625 0.282298 -0.6100109459161269 -0.6584239416238067 0.44086796091242786
-0.747844 0.178391 -0.637801 -0.0960580133917848 0.044953006267056374 -0.9943601386272369
-0.204491 -0.314021 0.269668 0.10773199918980149 -0.9073759931760788 0.4062789969445788
0.145524 -0.014907 -0.127273 0.2207251000155318 -0.09007904081684942 -0.9711674400579181
0.166948 -0.007307 -0.124882 0.0806220030436016 -0.10343800390493987 -0.9913630374254424
0.222091 -0.256732 -0.439214 -0.03074699475760709 -0.22657696136840477 0.9735078340159549
-0.649656 -0.041146 0.28238 0.8470902684480311 -0.15028204762529013 0.5097581615454456
-0.726828 0.149124 -0.637574 0.005816002015474779 -0.02033300704619132 -0.9997763464620553
-0.196276 -0.208499 0.264894 -0.2972270599166716 0.9210801856764286 -0.25153005070481615
-0.37684 0.020707 0.482685 0.8700981235761298 0.2636290374420485 -0.416448059146248
-0.1644 0.233205 0.220852 0.34798099164654234 -0.601882985551498 -0.7187809827453032
-0.174402 0.243018 0.207673 0.41287693271530973 -0.5432689114659175 -0.7310208808688264
-0.793891 -0.116196 -0.63297 -0.19596902117200427 -0.05775000623916664 -0.9789081057587902
-0.620792 -0.178026 -0.632255 -0.0038950003952529753 -0.01751000177686254 -0.9998391014606777
-0.604826 -0.158835 -0.632714 -0.0011850002646923538 -0.025021005588917622 -0.9996862232989369
-0.254004 0.244619 0.227315 -0.4357719107388876 -0.7879768385951748 0.43496591090398423
-0.169835 -0.025871 0.133081 -0.9408861319658756 -0.05499300771315483 -0.33422904687796673
-0.170927 -0.036959 0.137054 -0.9068233102519656 -0.05397301846581895 -0.41804114302464973
-0.633807 -0.155052 0.108259 0.46963291998465434 0.6116778957832465 -0.6366278915323039
-0.669034 -0.295971 -0.606037 -0.4266948259055597 -0.9040576311382335 0.0247249899120331
-0.679994 -0.287808 -0.619669 -0.3644720273292071 -0.8094250606931216 -0.4604250345240517
-0.536868 0.151342 -0.636814 0.020352003371136643 -0.006278001039897595 -0.9997731656039406
-0.017546 0.029653 0.334161 -0.685165084306143 0.5213790641530909 -0.5086380625853743
0.268225 -0.131558 0.012975 0.03429499866307809 -0.9808209617646572 -0.19186999252033224
0.234874 -0.134016 0.01581 0.07921898189489986 -0.967226778945181 -0.24123994486582312
0.231137 -0.123491 -0.013137 0.030894998849748317 -0.8989059665328325 -0.4370509837281551
-0.656818 -0.287297 -0.628121 -0.16350502399166622 -0.37071205439588123 -0.914242134149958
-0.077163 0.030437 0.349987 -0.24543906946773414 0.1641730464666427 -0.9554092704138234
-0.509504 0.167194 -0.636335 0.010494999237029326 -0.006163999551886495 -0.9999259273068876
-0.063069 0.015659 0.345831 -0.12318196060801666 0.07295697666931102 -0.9896986835072776
-0.731647 0.168494 -0.546916 -0.5491060187022768 0.34201701164892867 0.762566025972618
0.187229 -0.239755 -0.437608 -0.032481005294063246 -0.1314980214327985 0.9907841614874283
-0.264971 0.23828 0.190799 -0.1929060895808826 -0.9812034556469512 -0.005198002413825531
-0.279426 0.242731 0.193434 -0.3133029812561798 -0.916749945154061 0.24781198517427672
-0.758448 0.023638 0.543864 -0.8256991502384511 0.27095304930072467 0.49477809002636597
-0.747836 0.020882 0.563304 -0.8367160608819729 0.22664301649122642 0.4985370362750517
0.017599 0.075251 -0.449648 -0.06347401979370969 0.03417101065587254 0.9973983110282392
-0.669978 -0.29387 -0.595923 -0.4243699834544512 -0.8835609655512839 0.1980659922777042
-0.409166 0.02372 0.444474 0.5813236681700811 0.28274783860249036 -0.7629655644856468
-0.721637 0.170246 -0.541634 -0.4475809810312946 0.28642398786120843 0.8471319640981245
0.050043 0.103619 0.385476 0.23885992139109338 0.8781547109988932 -0.4144758635958085
-0.670662 -0.199504 -0.234359 -0.07793798399789167 -0.8421718270865616 0.533546890452964
-0.704411 0.174075 -0.534938 -0.39056882649257135 0.24557689090420948 0.8872136058616535
0.637304 -0.035372 -0.076859 0.6027819532892227 -0.3500559728734636 0.7170179444368476
-0.257565 0.247181 0.166196 0.2556819762148017 -0.7463749305673556 -0.6144519428396888
-0.262756 0.240236 0.177064 0.0716130064002695 -0.9484590847666377 -0.3087020275896275
-0.283674 0.241443 0.173137 -0.06951899869022732 -0.9920359813095463 -0.10503199802114466
-0.687226 0.168774 -0.519717 -0.8300794305984207 0.475196246505028 0.291816151377771
-0.266103 0.246678 0.163456 0.21332906773774965 -0.7691772442345817 -0.6023761912707353
0.136672 -0.242151 -0.44033 -0.055973988451503864 -0.15744096751694037 0.9859407965817016
-0.291558 0.242066 0.172511 -0.08122798099050213 -0.9963897668184175 -0.024686994222589822
-0.299757 0.242737 0.171872 -0.10080095496002658 -0.9933785561376994 0.055119975371242996
0.312997 -0.002897 0.154032 0.4659301121062929 -0.10065102421739422 0.8790782115128362
-0.690914 0.170683 -0.502337 -0.6912811267218657 0.40311707389721163 -0.5996891099317194
-0.316037 0.245112 0.170682 -0.20826904514325767 -0.9580712076662682 0.19678304265361465
0.614712 -0.021073 -0.05258 0.6012829836297704 -0.25301099311164926 0.7579209793652226
-0.790817 -0.050949 0.446506 -0.6467761843632542 -0.6897541966141169 0.3254530927702546
-0.324389 0.245883 0.156502 -0.07491998802085677 -0.9858688423669787 -0.14983197604299267
-0.584717 0.011879 0.442031 0.07825097016404539 0.018788992836030836 -0.9967566199512261
-0.597783 0.021766 0.438719 0.401933027924298 0.03798000263866077 -0.914881063561364
-0.635248 -0.306688 -0.590284 -0.3103940642568547 -0.9195771903681309 0.2409010498706178
-0.788948 -0.047098 0.458088 -0.6916948889432067 -0.6376688976174842 0.3390229455673278
-0.804441 -0.03407 0.445764 -0.8034928223079837 -0.4347789038488734 0.4066529100689222
0.236706 -0.112171 -0.03327 0.0036079988417567896 -0.8517027265855829 -0.5240128317809036
-0.763097 0.163984 -0.450015 -0.6332229730623786 0.3600659846826133 -0.6851139708549098
-0.306919 0.245605 0.15627 0.052927002816087115 -0.91156104850143 -0.40774402169483676
0.097587 -0.263045 -0.447679 -0.0599240123435688 -0.29096505993502597 0.9548551966877776
0.536485 -0.025947 0.004852 0.55136114881074 -0.3318210895575287 0.7654382065895036
-0.517071 -0.295817 -0.629732 0.005076997613499448 -0.01868499121690707 -0.999812530026733
-0.617597 0.027395 0.426753 0.6110307180857675 0.08145796241734125 -0.7874046367112695
-0.766794 0.180101 -0.435902 -0.6159471224740141 0.4931670980606158 -0.6143251221514979
0.086521 -0.264118 -0.448708 -0.06531498245179336 -0.29100392181584134 0.9544897435567978
-0.175233 0.19686 -0.63129 0.01072399852321971 -0.001125999844940824 -0.9999418623000155
-0.240163 0.199938 -0.632524 0.013021002349783315 -0.0076210013752936534 -0.9998861804404763
-0.216276 0.207773 -0.632127 0.02014900567430333 -0.0033780009513026277 -0.999791281558261
0.419354 -0.265711 -0.61954 -0.0008969999705088839 -0.021844999281791046 -0.9997609671303592
-0.136481 0.192292 -0.631464 0.007293002605013592 0.007880002814686288 -0.9999423571729742
-0.134895 -0.022266 0.247319 -0.4915051242906028 -0.4094381035376971 0.7686241943677892
-0.717393 0.257246 0.26818 -0.22043103052815682 0.5770730799205875 0.786382108908425
0.468879 0.030319 0.057671 0.5490352672525896 0.14871407238919485 0.822462400348064
0.472574 0.016046 0.05649 0.5581237339664787 0.011602994469352784 0.829676604528933
-0.666418 -0.208751 -0.490626 -0.6153401683263261 -0.6981301909735399 -0.36602010012481206
0.487367 0.037478 0.043773 0.5387897982208337 0.2295969140149386 0.810549696445548
-0.092244 0.176176 -0.630683 0.016169001908443576 -0.005129000605381106 -0.9998561180140244
0.537225 -0.243023 -0.619917 0.00632899838020383 -0.019909994904385882 -0.9997817441233915
-0.67759 -0.053235 0.411996 0.46677593056521843 -0.8331038760724753 -0.2967459558578554
0.696858 -0.164331 -0.31513 -0.18160897078810861 -0.9566418461236932 0.2277159633717764
0.674815 -0.161722 -0.327888 -0.28007592300419853 -0.9381937420807247 0.2033469440977976
0.567051 0.003287 -0.010391 0.6032271142099052 -0.07183201360006417 0.7943281503913545
0.55952 0.009493 -0.004338 0.5934743976018666 -0.030716020578389173 0.8042665388233737
